# .PCD v0.7 - Point Cloud Data file format
VERSION 0.7
FIELDS x y z rgb
SIZE 4 4 4 4
TYPE F F F U
COUNT 1 1 1 1
WIDTH 1121
HEIGHT 1
VIEWPOINT 0 0 0 1 0 0 0
POINTS 1121
DATA ascii
-35.351475 -23.816738 814.95624 4279441682
-34.854042 -23.881023 814.58063 4279638801
-34.406837 -23.798986 814.25165 4279573266
-33.911858 -23.862444 813.92627 4279836181
-33.467827 -23.78092 813.64484 4279967768
-32.976177 -23.845472 813.38892 4279968024
-32.53492 -23.76565 813.15845 4280165402
-32.046055 -23.832762 812.96442 4280296986
-31.607616 -23.754192 812.78369 4280231707
-31.120832 -23.821453 812.63647 4280822814
-30.684355 -23.743464 812.49127 4280955171
-30.199026 -23.812807 812.38403 4281283881
-29.764818 -23.735907 812.27643 4281547052
-29.280333 -23.805233 812.1972 4281153580
-28.847704 -23.731272 812.11676 4281218603
-28.36381 -23.803411 812.06799 4281218857
-27.93334 -23.728935 812.03235 4281152808
-27.450541 -23.801332 812.01782 4281349416
-27.021242 -23.730387 812.01489 4281414953
-26.539474 -23.80682 812.03876 4281218598
-26.111855 -23.736952 812.06818 4281219111
-25.630077 -23.80858 812.10669 4281744426
-25.203442 -23.734173 812.15613 4282007856
-24.722109 -23.807589 812.22516 4282402616
-24.296831 -23.737806 812.31738 4282664761
-23.816261 -23.814301 812.43268 4282139707
-23.392984 -23.745991 812.58435 4282204727
-22.913469 -23.82394 812.76947 4281219373
-22.491856 -23.756905 812.97455 4280890664
-22.01284 -23.836946 813.20697 4280955686
-21.591854 -23.772272 813.43835 4280889638
-21.11278 -23.853809 813.69397 4280955941
-20.692163 -23.787653 813.94476 4281021991
-20.21279 -23.867411 814.22931 4281547565
-19.792288 -23.800924 814.50189 4281810223
-19.312841 -23.882593 814.81653 4281219629
-18.893007 -23.818144 815.1319 4281415978
-18.414045 -23.903179 815.52429 4281349416
-17.996685 -23.844028 815.96863 4281020193
-17.520021 -23.93737 816.54535 4280428057
-17.10541 -23.885279 817.15674 4279770386
-16.629944 -23.97781 817.87006 4279703565
-16.216974 -23.919468 818.59344 4279440910
-15.738255 -24.011692 819.16602 4279638031
-15.317159 -23.948292 819.5141 4279573525
-39.706768 -23.634621 820.84332 4278848264
-39.250881 -23.591873 820.47351 4279243533
-38.713974 -23.591131 819.28308 4279638548
-38.234272 -23.534279 818.39478 4280098841
-37.715614 -23.540565 817.57465 4280231452
-37.245132 -23.485907 816.86273 4280427805
-36.740334 -23.494976 816.30426 4280033818
-36.280094 -23.449829 815.79907 4279704596
-35.782143 -23.473686 815.35199 4279506962
-35.327637 -23.43671 814.96271 4279375888
-34.833973 -23.456671 814.58154 4279507217
-34.38269 -23.414919 814.25403 4279573010
-33.89183 -23.436024 813.92334 4279835925
-33.443245 -23.396875 813.64368 4280033304
-32.956276 -23.419725 813.38428 4280033561
-32.510052 -23.382149 813.15729 4280165146
-32.026558 -23.406019 812.95892 4280231195
-31.582413 -23.369572 812.77991 4280363035
-31.101311 -23.39468 812.6264 4280559901
-30.658581 -23.358843 812.48346 4280691743
-30.179657 -23.384735 812.36786 4280889379
-29.738255 -23.351429 812.26318 4280955172
-29.261017 -23.379745 812.17694 4280889635
-28.820572 -23.348156 812.1001 4281021220
-28.344769 -23.377436 812.04596 4281349415
-27.905872 -23.347088 812.01428 4281677610
-27.431757 -23.37685 811.99628 4281611819
-26.99367 -23.347347 811.99927 4281349416
-26.521164 -23.381229 812.02014 4281349672
-26.083925 -23.352934 812.05341 4281481513
-25.61216 -23.383223 812.09149 4281744685
-25.175219 -23.350719 812.14386 4282007855
-24.704609 -23.380028 812.21509 4282074162
-24.268551 -23.352442 812.31073 4281942581
-23.799253 -23.387016 812.42889 4282074168
-23.364473 -23.362532 812.58411 4281942070
-22.897184 -23.399092 812.7699 4281482031
-22.462934 -23.37384 812.97614 4281153578
-21.996988 -23.410753 813.20721 4281021479
-21.562586 -23.38921 813.44019 4280693544
-21.096926 -23.428293 813.6933 4281087272
-20.662577 -23.403561 813.9472 4281481514
-20.197336 -23.44133 814.23102 4281744431
-19.762575 -23.417604 814.50952 4281744432
-19.297682 -23.455517 814.82837 4281416236
-18.863203 -23.433456 815.14722 4281546794
-18.399389 -23.476212 815.54358 4281349415
-17.966379 -23.459999 815.97949 4281019937
-17.505693 -23.511042 816.55896 4280559387
-17.074432 -23.499767 817.16541 4279901972
-16.615906 -23.551075 817.87842 4279703568
-16.18556 -23.536087 818.5929 4279310094
-15.724231 -23.582777 819.16821 4279638031
-15.285158 -23.561895 819.50848 4279704852
-39.253181 -23.047195 820.05817 4279243533
-38.722736 -23.090889 819.05298 4279638548
-38.255157 -22.997496 818.36914 4280164376
-37.736874 -23.04661 817.58954 4280296221
-37.267448 -22.951084 816.85632 4280427547
-36.760792 -23.008224 816.30389 4279901976
-36.302509 -22.922344 815.78296 4279441683
-35.801605 -22.98785 815.34021 4279441168
-35.349743 -22.907972 814.93164 4279441169
-34.852329 -22.969114 814.55414 4279573011
-34.404644 -22.884655 814.21368 4279704340
-33.909904 -22.946302 813.89056 4279835926
-33.46566 -22.864979 813.60724 4279967768
-32.974167 -22.930573 813.34955 4280033561
-32.532841 -22.85174 813.12091 4280165146
-32.043934 -22.918257 812.92267 4280165403
-31.6056 -22.840109 812.74506 4280493852
-31.118729 -22.905748 812.5957 4280428317
-30.682596 -22.827669 812.45959 4280625437
-30.197294 -22.898731 812.35028 4280625692
-29.763306 -22.823914 812.25024 4280363292
-29.278866 -22.892773 812.16974 4280626204
-28.84638 -22.819321 812.09131 4280692512
-28.362288 -22.892775 812.03735 4281283880
-27.931755 -22.82082 812.00024 4281940012
-27.448866 -22.892176 811.98096 4281742891
-27.019688 -22.820009 811.98102 4281415209
-26.538025 -22.89344 812.00415 4281350442
-26.110453 -22.822296 812.03735 4281678893
-25.628893 -22.895374 812.08057 4281810478
-25.202385 -22.822603 812.13623 4282007599
-24.72135 -22.894411 812.21167 4282335794
-24.296179 -22.823231 812.31 4282336051
-23.815962 -22.899563 812.43274 4282336054
-23.392555 -22.833195 812.58826 4282073139
-22.913332 -22.912752 812.77527 4281613102
-22.491488 -22.845886 812.97675 4281153322
-22.012585 -22.924545 813.20477 4281152809
-21.591225 -22.859951 813.42834 4281218346
-21.112204 -22.940052 813.67896 4281284652
-20.691435 -22.873236 813.92688 4281744429
-20.212162 -22.952827 814.21307 4281744431
-19.791765 -22.886997 814.49438 4281810223
-19.312696 -22.968216 814.8194 4281350444
-18.892942 -22.904003 815.14777 4281481257
-18.414289 -22.988033 815.54425 4281283623
-17.996862 -22.928335 815.98956 4281020194
-17.519953 -23.019348 816.54852 4280625180
-17.105572 -22.96628 817.17151 4280164374
-16.63027 -23.061504 817.89539 4279703823
-16.217325 -23.00779 818.62225 4279309838
-15.738824 -23.095768 819.22125 4279638030
-15.31843 -23.030554 819.59119 4279835923
-39.707161 -22.709606 820.86505 4278914056
-39.247204 -22.670612 820.49524 4279309070
-38.712242 -22.665556 819.26141 4279572754
-38.233784 -22.609081 818.39612 4280032535
-37.715389 -22.616732 817.58295 4280098841
-37.244263 -22.56621 816.85901 4280032791
-36.739685 -22.582941 816.30261 4279638547
-36.279198 -22.540844 815.79034 4279310096
-35.781136 -22.564262 815.33905 4279440912
-35.325844 -22.523836 814.93152 4279441425
-34.83205 -22.544167 814.54846 4279638547
-34.380249 -22.501125 814.20959 4279835669
-33.889744 -22.52038 813.88501 4279901718
-33.44091 -22.479685 813.60193 4280033048
-32.953999 -22.503019 813.33929 4279967768
-32.507595 -22.465357 813.10809 4280099353
-32.023891 -22.49033 812.90338 4280165145
-31.57966 -22.455547 812.72314 4280362267
-31.098684 -22.481079 812.56934 4280362266
-30.656254 -22.444757 812.43793 4280428058
-30.177702 -22.471968 812.32733 4280493336
-29.736618 -22.439533 812.23523 4280362263
-29.259809 -22.467583 812.15509 4280690971
-28.81959 -22.435619 812.08569 4280954656
-28.34392 -22.467583 812.02875 4281283621
-27.904873 -22.437687 811.99628 4281677353
-27.430672 -22.467215 811.97174 4281808939
-26.992531 -22.436316 811.97546 4281481256
-26.520008 -22.467455 811.9917 4281415977
-26.082647 -22.436977 812.02661 4281613614
-25.611143 -22.469147 812.06812 4281744941
-25.174215 -22.440084 812.12622 4282138414
-24.703905 -22.471037 812.20343 4282401330
-24.267899 -22.440056 812.30463 4282401072
-23.799046 -22.471048 812.43048 4282073393
-23.364098 -22.446802 812.58698 4281941553
-22.896946 -22.486679 812.7738 4281612846
-22.462543 -22.46302 812.97528 4281284394
-21.996462 -22.499781 813.20215 4281218601
-21.561832 -22.475616 813.42828 4281021993
-21.096092 -22.514523 813.67841 4281415979
-20.661674 -22.490114 813.92938 4281810222
-20.196541 -22.526335 814.21454 4281876271
-19.761921 -22.501722 814.49927 4281941551
-19.297384 -22.542295 814.82715 4281547563
-18.862976 -22.52107 815.15814 4281481257
-18.399551 -22.562529 815.56067 4281283878
-17.966528 -22.54343 816.00208 4281085986
-17.505835 -22.591213 816.57562 4280559644
-17.074848 -22.579973 817.19757 4279967765
-16.616663 -22.635071 817.92871 4279638288
-16.186335 -22.624315 818.65045 4279310093
-15.725443 -22.666117 819.23969 4279572240
-15.287141 -22.645174 819.62732 4279704338
-39.259712 -22.130434 820.22076 4279243277
-38.722305 -22.172663 819.05402 4279441169
-38.255924 -22.079016 818.39734 4279835155
-37.73703 -22.129362 817.60492 4279769876
-37.267258 -22.03689 816.86658 4279441425
-36.760712 -22.096493 816.31262 4279309839
-36.302288 -22.012291 815.78888 4279244048
-35.801117 -22.075218 815.33978 4279441424
-35.348434 -21.992788 814.91278 4279441681
-34.850845 -22.054117 814.53363 4279638803
-34.402779 -21.970827 814.1842 4279835925
-33.908421 -22.031105 813.86713 4279901718
-33.463943 -21.949448 813.58063 4280033047
-32.972462 -22.014336 813.31879 4279967511
-32.530949 -21.935066 813.08478 4280099095
-32.041759 -22.001463 812.87988 4280164631
-31.603415 -21.925097 812.69873 4280099094
-31.116289 -21.994041 812.54755 4280099093
-30.680658 -21.91971 812.41992 4280164630
-30.195375 -21.987698 812.3161 4280361494
-29.761847 -21.910791 812.22614 4280361751
-29.277645 -21.981047 812.15503 4280756251
-28.845623 -21.909321 812.08649 4281216544
-28.361696 -21.981253 812.03424 4281479973
-27.931309 -21.909145 811.9986 4281808935
-27.448307 -21.980513 811.9762 4282202409
-27.01915 -21.908056 811.97577 4281743657
-26.537289 -21.979666 811.99347 4281612841
-26.109646 -21.908131 812.02417 4281744684
-25.628084 -21.981939 812.06842 4281810477
-25.201576 -21.913013 812.12537 4281810477
-24.720642 -21.985895 812.20422 4282072877
-24.295532 -21.912708 812.30359 4281810475
-23.815559 -21.984961 812.43146 4281809964
-23.392014 -21.917261 812.58545 4281744173
-22.913054 -21.998598 812.77405 4281612331
-22.490976 -21.935099 812.97192 4281415465
-22.01222 -22.013401 813.2005 4281349928
-21.590693 -21.946918 813.42224 4281218856
-21.111759 -22.026007 813.67462 4281547305
-20.690922 -21.960253 813.92084 4281613611
-20.211678 -22.038471 814.20789 4281876013
-19.791428 -21.972363 814.49127 4281744940
-19.312487 -22.054485 814.82281 4281547306
-18.893133 -21.991476 815.1618 4281415719
-18.41448 -22.073971 815.56683 4281283621
-17.997389 -22.012564 816.02203 4281020193
-17.520576 -22.100403 816.58636 4280559130
-17.106529 -22.04789 817.22241 4279967508
-16.631508 -22.144274 817.96472 4279704079
-16.218472 -22.093109 818.69495 4279375374
-15.743467 -22.185228 819.49103 4279506702
-15.325569 -22.121408 819.98352 4279835155
-14.838259 -22.2036 820.2276 4279835928
-39.729401 -21.806198 821.3443 4278782471
-39.258442 -21.758863 820.74701 4279111435
-38.710083 -21.747206 819.22662 4279243534
-38.236717 -21.695013 818.47284 4279506191
-37.717621 -21.705641 817.64691 4279440655
-37.246765 -21.655148 816.92645 4279309326
-36.741928 -21.672981 816.36328 4279309327
-36.281322 -21.630413 815.84857 4279375375
-35.782684 -21.651873 815.38647 4279507218
-35.326706 -21.607233 814.9621 4279573010
-34.832642 -21.626959 814.57507 4279639059
-34.380512 -21.58555 814.22974 4279835925
-33.890377 -21.606024 813.91034 4279901717
-33.44133 -21.565506 813.62445 4279967254
-32.954319 -21.589323 813.35834 4279901717
-32.507645 -21.551556 813.12085 4280033045
-32.023651 -21.576336 812.90979 4280032788
-31.579208 -21.542143 812.72302 4279966994
-31.098017 -21.570333 812.56537 4280032531
-30.655729 -21.535334 812.43683 4280229652
-30.177214 -21.563089 812.3288 4280360980
-29.736404 -21.5306 812.24182 4280361493
-29.25988 -21.559828 812.17029 4280689944
-28.820076 -21.525749 812.10974 4281084701
-28.344381 -21.554762 812.05469 4281545507
-27.905615 -21.524698 812.02521 4282202152
-27.431299 -21.555447 811.99866 4282202923
-26.992971 -21.523342 811.99994 4281940266
-26.520237 -21.55353 812.00739 4281743914
-26.082569 -21.523582 812.03754 4281809965
-25.611059 -21.557743 812.07776 4281679150
-25.17399 -21.5296 812.13452 4281547566
-24.703775 -21.562403 812.21423 4281547561
-24.267698 -21.529911 812.3147 4281547560
-23.799055 -21.559734 812.44507 4281481256
-23.363995 -21.534441 812.59692 4281415465
-22.896965 -21.573639 812.78741 4281415465
-22.462521 -21.549982 812.98285 4281284393
-21.996407 -21.588785 813.21252 4281218599
-21.561853 -21.563805 813.43628 4281218856
-21.09609 -21.600306 813.68958 4281415721
-20.661636 -21.574411 813.93829 4281481771
-20.19643 -21.612219 814.22198 4281547819
-19.761847 -21.588495 814.50629 4281678892
-19.297365 -21.630087 814.83569 4281416233
-18.863054 -21.607725 815.17719 4281415463
-18.399784 -21.647259 815.58508 4281086500
-17.966955 -21.626215 816.03809 4280888353
-17.506296 -21.673183 816.61499 4280427802
-17.075672 -21.662319 817.2522 4279967508
-16.617855 -21.718679 817.99646 4279703824
-16.187401 -21.707684 818.72229 4279375630
-15.72694 -21.750614 819.2804 4279572239
-15.289636 -21.729216 819.77185 4279704081
-39.254726 -21.209768 820.12225 4278914057
-38.72831 -21.258127 819.18201 4278914827
-38.265202 -21.16745 818.60522 4279046413
-37.744717 -21.220217 817.78149 4279112462
-37.275799 -21.13085 817.06543 4279243535
-36.768696 -21.188694 816.50165 4279309840
-36.310074 -21.103346 815.97406 4279506962
-35.808144 -21.163637 815.5097 4279769876
-35.354744 -21.079639 815.0694 4279835668
-34.856796 -21.140217 814.68085 4279835925
-34.40836 -21.057539 814.32635 4279901717
-33.91391 -21.119572 814.00482 4279966996
-33.469021 -21.039303 813.71442 4279901459
-32.976883 -21.103222 813.4411 4279835666
-32.535172 -21.024895 813.20062 4279835410
-32.045284 -21.092701 812.98352 4279835409
-31.606771 -21.017567 812.79523 4279835409
-31.119133 -21.084785 812.63519 4279966738
-30.683474 -21.00984 812.50562 4280098067
-30.198044 -21.079472 812.39935 4280295187
-29.76442 -21.006609 812.31061 4280229652
-29.280437 -21.075481 812.24567 4280492820
-28.848608 -21.00009 812.18561 4280822041
-28.364759 -21.069582 812.1358 4281413408
-27.934538 -20.99844 812.10516 4281939749
-27.451374 -21.069431 812.08191 4282071081
-27.022158 -20.996637 812.07843 4282005544
-26.539618 -21.06848 812.08325 4281873960
-26.11187 -20.998501 812.10834 4281809194
-25.630018 -21.072191 812.14441 4281743918
-25.203375 -21.003313 812.198 4282203440
-24.722376 -21.075928 812.27411 4281678380
-24.297089 -21.002867 812.37354 4281284133
-23.817204 -21.075956 812.50256 4281283363
-23.393568 -21.009394 812.65436 4281283365
-22.914606 -21.087856 812.84442 4281349158
-22.492416 -21.023249 813.03912 4281349158
-22.013626 -21.102871 813.26825 4281348902
-21.592007 -21.03713 813.4895 4281414951
-21.113052 -21.113155 813.74261 4281414952
-20.692171 -21.046032 813.98816 4281612330
-20.212906 -21.125845 814.27081 4281481259
-19.792555 -21.060873 814.55347 4281678378
-19.313454 -21.141058 814.88104 4281349928
-18.894291 -21.077225 815.22717 4281217828
-18.415615 -21.15942 815.63409 4280954402
-17.998724 -21.098705 816.09698 4280887839
-17.521845 -21.185474 816.65979 4280427545
-17.107967 -21.132032 817.29889 4279835923
-16.632872 -21.227327 818.03601 4279572750
-16.219631 -21.17502 818.763 4279506702
-15.743098 -21.266357 819.49536 4279637774
-15.327099 -21.203922 820.07117 4279703825
-14.838692 -21.283455 820.2912 4279901205
-39.673443 -20.903234 822.04681 4278585093
-39.26593 -20.843822 820.90491 4278848264
-38.711864 -20.832552 819.28436 4278980107
-38.251804 -20.783909 818.80914 4279177484
-37.733173 -20.802334 818.00146 4279243535
-37.263885 -20.756304 817.31299 4279309584
-36.757748 -20.772316 816.72931 4279375633
-36.296944 -20.722975 816.20935 4279572755
-35.796856 -20.740143 815.7243 4279704596
-35.340355 -20.697496 815.28851 4279835668
-34.845142 -20.720146 814.88269 4279835924
-34.392609 -20.677847 814.52802 4280032533
-33.901646 -20.69738 814.19348 4279901203
-33.452118 -20.656496 813.89789 4279900945
-32.964233 -20.68037 813.61401 4279834897
-32.51704 -20.644987 813.36835 4279769360
-32.032387 -20.673143 813.14227 4279834896
-31.587343 -20.637756 812.9469 4279966481
-31.105707 -20.66466 812.77716 4280032018
-30.663021 -20.629951 812.64056 4280163346
-30.184052 -20.659529 812.52429 4280229140
-29.743017 -20.62558 812.43243 4280295188
-29.2663 -20.653698 812.36261 4280558101
-28.826622 -20.618544 812.30627 4280887320
-28.350857 -20.646393 812.2536 4281150749
-27.912127 -20.614979 812.2276 4281545251
-27.437752 -20.646326 812.20325 4281480227
-26.999119 -20.6164 812.19971 4281611045
-26.526003 -20.649071 812.19727 4281611045
-26.088036 -20.618061 812.21954 4281480229
-25.616129 -20.649057 812.25226 4281481000
-25.178795 -20.618908 812.30188 4281874735
-24.708296 -20.652554 812.37714 4281743659
-24.272018 -20.622454 812.47455 4281414435
-23.803295 -20.654541 812.60529 4281217058
-23.367996 -20.627125 812.75403 4281151524
-22.900953 -20.663849 812.94678 4281151523
-22.466328 -20.639978 813.14001 4281151268
-22.000237 -20.681982 813.37122 4281217317
-21.565479 -20.65745 813.59351 4281283110
-21.099916 -20.692596 813.84741 4281283366
-20.665136 -20.663691 814.09387 4281414697
-20.2001 -20.700619 814.37494 4281481001
-19.765106 -20.676338 814.65619 4281612330
-19.300558 -20.716288 814.9837 4281218341
-18.866158 -20.694401 815.32812 4281085987
-18.402887 -20.736319 815.7392 4280888352
-17.970106 -20.714075 816.19531 4280624926
-17.509489 -20.759819 816.77094 4280295704
-17.078403 -20.749184 817.39575 4279835923
-16.620115 -20.803715 818.11304 4279572495
-16.188915 -20.789297 818.81177 4279441166
-15.730536 -20.837666 819.50232 4279637776
-15.294089 -20.815434 820.01801 4279769360
-14.834132 -20.858799 820.22778 4279769619
-39.26128 -20.297035 820.2713 4278782728
-38.740158 -20.348282 819.45337 4278980107
-38.290051 -20.267639 819.15814 4279308814
-37.772392 -20.325325 818.39642 4279375121
-37.304726 -20.239183 817.71307 4279441170
-36.796116 -20.289751 817.12219 4279441426
-36.336246 -20.198376 816.57343 4279572755
-35.83242 -20.257896 816.0752 4279573011
-35.377945 -20.176067 815.61597 4279507474
-34.87838 -20.237892 815.1944 4279573010
-34.42878 -20.15551 814.82196 4279704338
-33.932907 -20.21557 814.47205 4279704336
-33.487274 -20.134365 814.16705 4279506959
-32.993778 -20.199072 813.87006 4279572750
-32.551731 -20.123211 813.62079 4279572240
-32.060642 -20.190634 813.38538 4279638288
-31.621696 -20.114975 813.18616 4279769361
-31.132946 -20.183788 813.00793 4279835410
-30.69656 -20.110081 812.86035 4279900948
-30.210081 -20.176661 812.73712 4279967509
-29.775858 -20.101963 812.63342 4280295447
-29.291378 -20.171143 812.56207 4280230421
-28.859171 -20.09623 812.49866 4280296470
-28.375349 -20.163929 812.45007 4280625177
-27.944862 -20.090883 812.42072 4280953629
-27.461769 -20.162838 812.40155 4280954143
-27.032181 -20.093225 812.39368 4280953886
-26.54925 -20.166779 812.39105 4280953884
-26.121073 -20.096722 812.40924 4280560413
-25.63871 -20.167492 812.4361 4280889634
-25.211803 -20.096466 812.48444 4281414694
-24.730322 -20.169264 812.55389 4281348645
-24.304958 -20.098661 812.65302 4280954399
-23.824759 -20.172361 812.78156 4280888351
-23.401306 -20.103155 812.93536 4280822559
-22.921967 -20.178598 813.12659 4280887840
-22.49995 -20.115828 813.32239 4280822304
-22.020775 -20.198822 813.55023 4280822560
-21.599174 -20.134233 813.77087 4280757280
-21.119818 -20.209263 814.02051 4280888610
-20.698816 -20.14081 814.26538 4281085731
-20.219271 -20.216774 814.54456 4281151780
-19.798828 -20.150526 814.82898 4281152034
-19.319595 -20.230795 815.15625 4281085730
-18.90053 -20.16824 815.5108 4280888095
-18.42181 -20.250759 815.92108 4280624669
-18.004871 -20.189482 816.39008 4280427290
-17.527781 -20.275177 816.94769 4280098326
-17.113478 -20.222435 817.5744 4279769874
-16.637344 -20.316683 818.25958 4279572495
-16.223536 -20.261923 818.96356 4279375374
-15.744423 -20.345917 819.55194 4279572239
-15.325948 -20.28307 820.01898 4279703825
-14.837446 -20.35984 820.22052 4279572757
-39.27784 -19.933981 821.37616 4278782472
-38.731827 -19.930122 819.73224 4278914314
-38.284607 -19.891472 819.62518 4279177742
-37.775974 -19.920568 818.94434 4279375377
-37.307659 -19.867283 818.284 4279572244
-36.797203 -19.873695 817.61932 4279441428
-36.333317 -19.822157 817.03735 4279441426
-35.830105 -19.84259 816.49359 4279506963
-35.371937 -19.800768 816.02783 4279572755
-34.874317 -19.821983 815.57574 4279638547
-34.420231 -19.778265 815.1911 4279638546
-33.927322 -19.797365 814.82098 4279638546
-33.476601 -19.756222 814.50287 4279573008
-32.987282 -19.781828 814.19629 4279638289
-32.539349 -19.747553 813.93878 4279638546
-32.053707 -19.775383 813.69617 4279835413
-31.608046 -19.738953 813.48883 4279966740
-31.125242 -19.76684 813.30029 4280032535
-30.681721 -19.730457 813.14246 4280098839
-30.201471 -19.757528 813.00464 4280164632
-29.759705 -19.722397 812.89392 4280296216
-29.281981 -19.751783 812.81042 4280361753
-28.841898 -19.71727 812.74603 4280493334
-28.365671 -19.744715 812.69061 4280493080
-27.926699 -19.712614 812.66302 4280624663
-27.452002 -19.745001 812.64062 4280624666
-27.01314 -19.71521 812.6308 4280624919
-26.539288 -19.74814 812.62109 4280558872
-26.10108 -19.717413 812.63678 4280493845
-25.628618 -19.747847 812.66168 4280559898
-25.190989 -19.716091 812.70642 4280757019
-24.720041 -19.749502 812.77747 4280691228
-24.28367 -19.721027 812.87787 4280494104
-23.8148 -19.755047 813.01215 4280362264
-23.379456 -19.724844 813.1684 4280427544
-22.912518 -19.75922 813.36566 4280558362
-22.477684 -19.734291 813.56403 4280427287
-22.011364 -19.776379 813.79218 4280493081
-21.576427 -19.753572 814.01306 4280493335
-21.110441 -19.791265 814.25952 4280427801
-20.675341 -19.762266 814.50507 4280493847
-20.209867 -19.797407 814.78223 4280493849
-19.774752 -19.771646 815.06934 4280624919
-19.310028 -19.811317 815.40137 4280493337
-18.875832 -19.788233 815.75989 4280492824
-18.4126 -19.829754 816.18182 4280295703
-17.979647 -19.80769 816.6449 4280229396
-17.518827 -19.85441 817.21637 4279966739
-17.0872 -19.843225 817.82452 4279769617
-16.627579 -19.898138 818.48077 4279572239
-16.19524 -19.881739 819.12958 4279440909
-15.732815 -19.921824 819.62811 4279506446
-15.292695 -19.894972 819.95709 4279703824
-14.821157 -19.93051 820.15509 4279638547
-38.762821 -19.443981 819.96454 4278782470
-38.319363 -19.36944 819.82489 4278914570
-37.822838 -19.432413 819.52203 4279374608
-37.359367 -19.345922 818.83423 4279769108
-36.844662 -19.394236 818.21198 4279506964
-36.382313 -19.305746 817.58789 4279506963
-35.873337 -19.36595 817.01965 4279507221
-35.416828 -19.283007 816.52155 4279835671
-34.914246 -19.342169 816.04077 4279770135
-34.461929 -19.258514 815.61823 4279835926
-33.963875 -19.318293 815.22516 4279835413
-33.516304 -19.238186 814.88293 4279770132
-33.0214 -19.303762 814.56305 4279901206
-32.578159 -19.229265 814.29358 4280032791
-32.086334 -19.295879 814.04523 4280098586
-31.646301 -19.219563 813.83118 4280361499
-31.156824 -19.285276 813.63757 4280296220
-30.719206 -19.207968 813.46741 4280690462
-30.231657 -19.274849 813.32422 4280690975
-29.796345 -19.202396 813.2005 4280756765
-29.310802 -19.27157 813.1106 4280624924
-28.877811 -19.197155 813.03564 4280887324
-28.393484 -19.265217 812.98206 4280494106
-27.96245 -19.191767 812.94769 4280231706
-27.478977 -19.263712 812.92755 4280100888
-27.049112 -19.195723 812.91412 4280494106
-26.565653 -19.267866 812.90668 4280494618
-26.13714 -19.196802 812.92029 4280560155
-25.654312 -19.266994 812.94019 4280364058
-25.22716 -19.195616 812.98846 4280297754
-24.745285 -19.268417 813.05634 4280035351
-24.31987 -19.199812 813.16418 4280099863
-23.839394 -19.274021 813.2984 4279968532
-23.41621 -19.2064 813.46851 4280164630
-22.936619 -19.280781 813.66479 4280099092
-22.514784 -19.214861 813.87347 4280295703
-22.035263 -19.293867 814.09778 4280231447
-21.613609 -19.230024 814.32355 4280362521
-21.133713 -19.307236 814.56555 4280035093
-20.712543 -19.240908 814.81586 4279837461
-20.232605 -19.317045 815.09344 4279706641
-19.81214 -19.250441 815.3927 4279508753
-19.332752 -19.32963 815.73016 4279640081
-18.913927 -19.26697 816.11145 4279901460
-18.43545 -19.347948 816.5426 4279705105
-18.018623 -19.287477 817.03888 4279638801
-17.541492 -19.374203 817.60022 4279704336
-17.126793 -19.321968 818.23248 4279638289
-16.649246 -19.410166 818.83521 4279441679
-16.233229 -19.353523 819.43823 4279309838
-15.747069 -19.426373 819.65228 4279506702
-15.323386 -19.361153 819.89044 4279572752
-39.322586 -19.047277 822.93994 4278387714
-38.85088 -19.222031 822.51373 4278519299
-38.291828 -19.018635 821.81995 4278651398
-37.838871 -19.029814 820.32721 4279111692
-37.358685 -18.971247 819.42279 4279506194
-36.846367 -18.979357 818.72369 4279441170
-36.377907 -18.930021 818.05157 4279441684
-35.870209 -18.94911 817.42053 4279573269
-35.409851 -18.904989 816.91449 4279901978
-34.90926 -18.925291 816.40814 4279967769
-34.45277 -18.880909 815.9715 4279967514
-33.958092 -18.901386 815.57233 4279901462
-33.505394 -18.861229 815.21307 4279835926
-33.015251 -18.889301 814.89789 4279901718
-32.565807 -18.853645 814.6145 4280033306
-32.079803 -18.880127 814.36969 4280230939
-31.633022 -18.840477 814.1449 4280362784
-31.149767 -18.865671 813.94977 4280494623
-30.705051 -18.828127 813.77081 4280888613
-30.223963 -18.856552 813.61841 4281085987
-29.780998 -18.822577 813.48865 4281216804
-29.302301 -18.85294 813.38641 4281019935
-28.861416 -18.819258 813.30981 4281019936
-28.384741 -18.848225 813.24963 4281020193
-27.945129 -18.813887 813.21503 4280955173
-27.470001 -18.845819 813.19067 4280758047
-27.030752 -18.816902 813.17487 4281020963
-26.556484 -18.851627 813.16467 4281480742
-26.11801 -18.817818 813.17474 4281612073
-25.645092 -18.846405 813.19781 4281218341
-25.20726 -18.815197 813.24237 4280889633
-24.736042 -18.850531 813.3175 4280626459
-24.299759 -18.822611 813.42755 4280429082
-23.830791 -18.857924 813.5719 4280428057
-23.395678 -18.8281 813.74701 4280362264
-22.928772 -18.864511 813.95447 4280558616
-22.494015 -18.836987 814.17163 4280624923
-22.027596 -18.873644 814.40314 4281020193
-21.592674 -18.848339 814.63763 4281348646
-21.126427 -18.88838 814.88568 4280955172
-20.691246 -18.862427 815.1438 4280626465
-20.225519 -18.900656 815.42743 4280363292
-19.790564 -18.873119 815.73718 4280034586
-19.326006 -18.911123 816.09277 4280033816
-18.89237 -18.889509 816.49243 4279836950
-18.429728 -18.933804 816.95984 4279902230
-17.997173 -18.910742 817.46301 4279836437
-17.536652 -18.957869 818.06006 4279835925
-17.104616 -18.946037 818.66846 4279639060
-16.642969 -18.995644 819.23077 4279704339
-16.20566 -18.972603 819.64288 4279573010
-15.735643 -19.005154 819.7998 4279638290
-15.291839 -18.976717 819.93701 4279703825
-37.91811 -18.556143 821.63947 4278914313
-37.391048 -18.439447 819.56006 4279177485
-36.876316 -18.492441 818.94153 4279243791
-36.417973 -18.407722 818.40393 4279375377
-35.905914 -18.467945 817.77734 4279572756
-35.447548 -18.384878 817.24249 4279770134
-34.943459 -18.442015 816.73669 4279901465
-34.48925 -18.358559 816.27704 4279967000
-33.990299 -18.419117 815.87317 4279769877
-33.540779 -18.340717 815.49011 4279638548
-33.045647 -18.408131 815.17255 4279770132
-32.600925 -18.332798 814.87323 4279901975
-32.109016 -18.39539 814.62897 4280164890
-31.667738 -18.316221 814.39484 4280362524
-31.177923 -18.381605 814.20135 4280690975
-30.73951 -18.305405 814.01526 4281085217
-30.251429 -18.373049 813.86926 4281216290
-29.815578 -18.300438 813.73413 4281151007
-29.329147 -18.369869 813.63135 4281150493
-28.895651 -18.297892 813.54767 4280823069
-28.410845 -18.367256 813.48981 4281479205
-27.979185 -18.294395 813.44769 4281873962
-27.495363 -18.36405 813.42261 4281480490
-27.065067 -18.294558 813.40448 4281612328
-26.581318 -18.366461 813.39661 4282399280
-26.152431 -18.296606 813.4071 4282531376
-25.669334 -18.367102 813.42773 4281940271
-25.242027 -18.296751 813.48114 4281481000
-24.760107 -18.368288 813.55762 4281414695
-24.3349 -18.300333 813.67871 4280823584
-23.854433 -18.374176 813.82404 4280822301
-23.431448 -18.307713 814.01221 4280494108
-22.951874 -18.382744 814.21936 4280887067
-22.53026 -18.316126 814.44757 4280888352
-22.050716 -18.391663 814.68359 4281611049
-21.629454 -18.326469 814.93256 4282005804
-21.14953 -18.404453 815.19232 4281873969
-20.72872 -18.340694 815.46863 4281940014
-20.248787 -18.417887 815.76501 4281479470
-19.828857 -18.35277 816.09833 4281348135
-19.349773 -18.43107 816.46533 4280822051
-18.93186 -18.37039 816.90521 4280362781
-18.454115 -18.452927 817.39191 4280558621
-18.038456 -18.391481 817.9613 4280427291
-17.561426 -18.477062 818.54761 4280295450
-17.147102 -18.425644 819.20776 4280230169
-16.665436 -18.508036 819.62183 4280229914
-16.242754 -18.44422 819.9115 4280098584
-37.833385 -18.132732 821.65503 4278848007
-37.381832 -18.053864 819.96173 4279045642
-36.866825 -18.073076 819.18701 4279046156
-36.400494 -18.027145 818.58752 4279177741
-35.891705 -18.045034 817.92657 4279243792
-35.431171 -18.000902 817.4173 4279309585
-34.930092 -18.02109 816.90771 4279375634
-34.472565 -17.976488 816.44812 4279375634
-33.977089 -18.000317 816.04047 4279441170
-33.52301 -17.961103 815.65094 4279375889
-33.032673 -17.989107 815.34143 4279573011
-32.582245 -17.94923 815.03522 4279705110
-32.096199 -17.973557 814.80005 4279836695
-31.648771 -17.9317 814.56122 4279968280
-31.165621 -17.957956 814.37378 4280230937
-30.720266 -17.921318 814.18628 4280428058
-30.239248 -17.951878 814.03961 4280559385
-29.795834 -17.919664 813.90479 4280559128
-29.316832 -17.950594 813.79919 4280755993
-28.875568 -17.916138 813.71814 4280822042
-28.398594 -17.946836 813.6579 4281150752
-27.958647 -17.913261 813.61719 4281216803
-27.482971 -17.944534 813.58685 4281348644
-27.043564 -17.910686 813.56476 4281611043
-26.568844 -17.943703 813.55347 4281939752
-26.130104 -17.91412 813.55939 4281873960
-25.657003 -17.948526 813.58496 4281546024
-25.219168 -17.917189 813.63898 4281414437
-24.748196 -17.951326 813.72766 4281348901
-24.312178 -17.920109 813.85486 4280954400
-23.843388 -17.954449 814.01147 4280757021
-23.408501 -17.925665 814.20496 4280625436
-22.941557 -17.963377 814.41882 4280690716
-22.507072 -17.935102 814.65369 4280691486
-22.040522 -17.970211 814.89447 4280823071
-21.606047 -17.942209 815.15454 4280954403
-21.139889 -17.981754 815.42224 4281151781
-20.705311 -17.958424 815.71216 4281348135
-20.239635 -17.999239 816.01868 4281151525
-19.805437 -17.974277 816.3631 4281019427
-19.341139 -18.015991 816.74762 4280625181
-18.908581 -17.99144 817.20557 4280362011
-18.446997 -18.032637 817.74414 4280230423
-18.015701 -18.011524 818.33032 4280164376
-17.556637 -18.061872 818.99768 4280164118
-17.125711 -18.048822 819.6756 4280164375
-16.661739 -18.088808 820.14288 4280164889
-16.220976 -18.061949 820.38757 4280229915
-37.390453 -17.517464 819.70465 4278979592
-36.885574 -17.577847 819.19049 4279045642
-36.428043 -17.491917 818.68964 4279046155
-35.915951 -17.555307 818.03021 4278980620
-35.458405 -17.471867 817.51257 4279046413
-34.955082 -17.530693 817.02136 4279046669
-34.500725 -17.450596 816.55835 4279112463
-34.001553 -17.514563 816.15613 4279244047
-33.551098 -17.436628 815.75159 4279244304
-33.056095 -17.501066 815.44232 4279507219
-32.61034 -17.422821 815.12262 4279835669
-32.118881 -17.484917 814.88916 4279836182
-31.676685 -17.405041 814.64172 4279967252
-31.187389 -17.469376 814.45874 4280098579
-30.748465 -17.394365 814.26782 4280033042
-30.260853 -17.465769 814.13318 4280229906
-29.824856 -17.395613 813.9986 4280295443
-29.338348 -17.463896 813.90057 4280624149
-28.904879 -17.390905 813.81757 4280886808
-28.419952 -17.459471 813.763 4281019162
-27.988134 -17.38821 813.71649 4281150749
-27.503849 -17.458254 813.68658 4281348382
-27.073385 -17.386774 813.66321 4281741600
-26.589382 -17.456615 813.65381 4281807649
-26.160366 -17.389114 813.66144 4281414178
-25.677286 -17.463705 813.6861 4281152547
-25.250187 -17.393738 813.75024 4281545253
-24.768463 -17.463444 813.83984 4281414181
-24.343641 -17.396179 813.97687 4281282338
-23.863211 -17.469551 814.13184 4280757278
-23.440525 -17.402374 814.3349 4280625179
-22.96088 -17.47728 814.54675 4280559128
-22.539429 -17.410431 814.79047 4280493593
-22.059937 -17.483051 815.03772 4280362775
-21.639101 -17.416649 815.31146 4280296727
-21.159615 -17.494291 815.59375 4280493590
-20.739252 -17.431686 815.8988 4280493335
-20.259796 -17.512146 816.21844 4280493076
-19.840214 -17.450613 816.57654 4280164884
-19.361343 -17.529375 816.96844 4280098834
-18.944168 -17.468031 817.4502 4279966994
-18.467222 -17.548681 817.99689 4279769615
-18.052711 -17.488375 818.62415 4279638030
-17.577379 -17.576117 819.29321 4279769357
-17.162485 -17.522299 819.93768 4279769616
-16.679941 -17.600512 820.32294 4279966997
-16.254215 -17.531654 820.49438 4280098327
-37.751087 -17.221752 822.59399 4278716164
-36.38081 -17.099331 818.18835 4279111177
-35.886162 -17.125551 817.82129 4278980105
-35.434654 -17.083597 817.5141 4278980106
-34.934036 -17.105591 817.02155 4279045643
-34.477375 -17.065115 816.5741 4279046412
-33.981682 -17.092272 816.16406 4279112461
-33.527176 -17.051043 815.76532 4279244046
-33.036839 -17.077087 815.45752 4279441425
-32.58604 -17.034794 815.14166 4279704083
-32.100292 -17.058867 814.91412 4279769874
-31.652372 -17.016964 814.66968 4279900688
-31.169853 -17.044123 814.49207 4280031761
-30.724039 -17.009464 814.30286 4280097295
-30.243649 -17.043179 814.16986 4280294416
-29.800137 -17.010817 814.03754 4280491793
-29.321476 -17.042072 813.94116 4280820502
-28.880173 -17.006384 813.86078 4281017880
-28.403376 -17.035936 813.80688 4281215770
-27.963173 -17.002243 813.76172 4281610269
-27.487385 -17.034378 813.72778 4281741341
-27.049063 -17.000505 813.70062 4282069791
-26.574322 -17.032473 813.68762 4282529317
-26.1369 -17.005001 813.69135 4282727463
-25.662302 -17.041735 813.72021 4282136355
-25.226168 -17.010002 813.78754 4282201894
-24.753994 -17.043959 813.8877 4281939496
-24.318329 -17.013342 814.03058 4281545251
-23.848351 -17.04723 814.1933 4280953887
-23.413698 -17.016565 814.39746 4280625180
-22.946541 -17.053352 814.61102 4280624666
-22.512262 -17.02486 814.85602 4280493336
-22.045708 -17.060019 815.10553 4280361750
-21.611732 -17.032251 815.38635 4280295955
-21.145962 -17.070702 815.67596 4280229651
-20.712095 -17.045982 815.99402 4280229649
-20.246855 -17.088991 816.3252 4280098065
-19.813173 -17.06568 816.69305 4279966735
-19.349115 -17.107073 817.0993 4279835152
-18.917135 -17.083532 817.58984 4279703823
-18.456144 -17.126408 818.1709 4279571981
-18.02557 -17.10582 818.79395 4279375115
-17.563324 -17.150671 819.30798 4279571724
-17.125425 -17.127285 819.65253 4279637772
-35.891132 -16.624865 817.48584 4278914056
-35.447327 -16.549812 817.2782 4278914057
-34.953648 -16.614269 817.00531 4278914314
-34.500721 -16.5373 816.56866 4279045900
-34.001408 -16.600985 816.16388 4279177997
-33.550953 -16.521193 815.75842 4279309326
-33.055851 -16.584146 815.44794 4279506704
-32.610088 -16.506504 815.12708 4279703825
-32.118858 -16.567835 814.89996 4279769361
-31.676695 -16.488102 814.65234 4279703310
-31.187603 -16.555056 814.47864 4279834381
-30.74872 -16.483149 814.28784 4279965967
-30.26152 -16.554134 814.16473 4280228880
-29.825531 -16.48337 814.03284 4280426259
-29.339565 -16.551956 813.94489 4280755222
-28.906008 -16.4795 813.86261 4281084185
-28.42141 -16.546715 813.81482 4281281819
-27.989433 -16.474977 813.76599 4281675805
-27.505112 -16.544819 813.73328 4281938462
-27.074389 -16.473719 813.70502 4282463522
-26.591743 -16.544191 813.69177 4283186474
-26.162704 -16.478975 813.69855 4284106289
-25.681173 -16.554333 813.72485 4283123253
-25.252947 -16.483473 813.8028 4283122480
-24.772989 -16.553614 813.90308 4281941036
-24.347094 -16.487001 814.05682 4281873958
-23.866846 -16.559174 814.21637 4280954400
-23.442966 -16.488878 814.4295 4280822045
-22.963221 -16.56151 814.63788 4280624666
-22.541721 -16.49618 814.88806 4280493080
-22.062233 -16.571915 815.13855 4280230678
-21.641685 -16.507833 815.42682 4280164116
-21.162529 -16.583738 815.72449 4279901458
-20.742695 -16.519352 816.05219 4279966737
-20.2638 -16.598738 816.39203 4279835409
-19.844517 -16.537472 816.76813 4279769360
-19.366068 -16.616152 817.17761 4279572752
-18.949137 -16.555647 817.67603 4279572239
-18.472704 -16.638626 818.25061 4279440653
-18.058249 -16.580742 818.88367 4279374604
-17.57962 -16.659653 819.39307 4279505931
-17.158644 -16.596216 819.74048 4279506188
-35.867451 -16.197447 817.41199 4279044871
-35.421753 -16.161915 817.23022 4278914055
-34.93119 -16.188446 816.96246 4278979849
-34.475834 -16.149208 816.54926 4279111435
-33.979988 -16.177279 816.13379 4279243277
-33.52557 -16.135271 815.73962 4279374862
-33.034973 -16.157555 815.42444 4279506448
-32.584553 -16.113899 815.11212 4279703057
-32.098785 -16.139193 814.88702 4279703311
-31.651144 -16.101305 814.64661 4279703052
-31.168673 -16.133045 814.47534 4279834125
-30.72304 -16.099335 814.28827 4279965966
-30.242916 -16.132088 814.16309 4280294417
-29.799732 -16.09724 814.03479 4280557844
-29.321442 -16.127464 813.94843 4280821014
-28.880062 -16.09095 813.86804 4281215771
-28.403484 -16.121742 813.81763 4281478170
-27.964703 -16.089373 813.7691 4281872669
-27.488398 -16.121819 813.72925 4282529055
-27.051748 -16.087112 813.69507 4283186212
-26.576462 -16.119684 813.67432 4284236846
-26.140844 -16.094061 813.67926 4285616949
-25.665749 -16.133114 813.70569 4285947194
-25.230667 -16.100723 813.78839 4285093943
-24.756794 -16.132643 813.89667 4283320874
-24.32188 -16.099325 814.05872 4282072869
-23.850367 -16.131857 814.22418 4281479199
-23.416151 -16.101048 814.43958 4280757021
-22.94742 -16.136957 814.64789 4280624666
-22.512987 -16.109377 814.89526 4280427543
-22.046398 -16.147905 815.14172 4280295700
-21.612379 -16.121479 815.42725 4280164115
-21.146872 -16.160854 815.72382 4280098065
-20.713158 -16.133558 816.05438 4280032272
-20.248415 -16.173412 816.39996 4279966224
-19.814951 -16.149488 816.78015 4279769360
-19.351225 -16.19245 817.20129 4279638031
-18.919292 -16.167459 817.698 4279572238
-18.458849 -16.212477 818.29926 4279440396
-18.027874 -16.194229 818.90692 4279309067
-17.566839 -16.236195 819.46393 4279571210
-17.128214 -16.209469 819.78052 4279768331
-35.885788 -15.704067 817.37842 4279176199
-35.442932 -15.629705 817.1933 4279045127
-34.949711 -15.696242 816.93738 4279111177
-34.49844 -15.619471 816.52661 4279177227
-33.998867 -15.684324 816.11841 4279374349
-33.548923 -15.605766 815.72015 4279440399
-33.053333 -15.664654 815.39844 4279440656
-32.607864 -15.583797 815.08356 4279703056
-32.116459 -15.647637 814.85419 4279637518
-31.674725 -15.574026 814.61292 4279637260
-31.185848 -15.644152 814.44196 4279834124
-30.74696 -15.573641 814.25348 4280031246
-30.260178 -15.641945 814.13519 4280294673
-29.824036 -15.569278 814.00574 4280754453
-29.338663 -15.635884 813.92792 4280952343
-28.904848 -15.563272 813.84308 4281543194
-28.420704 -15.632223 813.80157 4281806107
-27.988453 -15.561286 813.74731 4282659615
-27.505533 -15.630643 813.71503 4283644964
-27.074566 -15.56077 813.68054 4284302120
-26.593128 -15.632734 813.66498 4285090601
-26.1651 -15.567882 813.67444 4287521339
-25.683754 -15.641826 813.70227 4290344018
-25.255857 -15.571274 813.79242 4288705349
-24.77459 -15.640086 813.89917 4286079034
-24.349001 -15.572239 814.06769 4283582505
-23.86779 -15.643017 814.22797 4282266910
-23.443287 -15.572813 814.44751 4281412638
-22.963333 -15.644939 814.6496 4280690456
-22.541622 -15.580835 814.89551 4280558359
-22.062263 -15.657666 815.14111 4280426772
-21.641356 -15.595185 815.42566 4280360723
-21.162516 -15.672112 815.7298 4280294929
-20.742685 -15.607166 816.06274 4280097808
-20.264229 -15.68249 816.41846 4280031760
-19.845135 -15.6195 816.80139 4279966225
-19.367001 -15.699662 817.22797 4279572495
-18.949991 -15.640295 817.71881 4279440909
-18.473618 -15.721862 818.30084 4279374860
-18.058271 -15.663782 818.89362 4279374347
-17.580194 -15.741888 819.41846 4279439881
-17.158083 -15.677554 819.72693 4279440138
-35.86433 -15.277384 817.35846 4279175943
-35.418793 -15.240335 817.1814 4279045127
-34.928646 -15.267673 816.91089 4279111177
-34.473759 -15.229171 816.51154 4279308556
-33.97773 -15.257436 816.08746 4279440142
-33.52367 -15.216009 815.70483 4279506192
-33.032436 -15.23909 815.37274 4279440655
-32.582516 -15.195214 815.07123 4279571984
-32.096519 -15.222533 814.83978 4279703054
-31.649374 -15.188593 814.61096 4279768588
-31.166937 -15.222297 814.44098 4279965197
-30.721546 -15.187498 814.26019 4280097038
-30.241549 -15.218523 814.13898 4280425745
-29.798452 -15.180879 814.013 4280820245
-29.320595 -15.210635 813.93408 4281280279
-28.878876 -15.175429 813.85004 4281871130
-28.402752 -15.208998 813.80396 4282461980
-27.965164 -15.177081 813.75037 4283315489
-27.488693 -15.209087 813.71002 4284563752
-27.053686 -15.175807 813.67004 4285353262
-26.578001 -15.210417 813.64587 4286403632
-26.144793 -15.181136 813.65326 4290276168
-25.669018 -15.216002 813.67914 4292709218
-25.235048 -15.184454 813.7713 4292115281
-24.758991 -15.219204 813.88501 4287851842
-24.324829 -15.186864 814.05939 4285157424
-23.851345 -15.219054 814.2287 4283054883
-23.417681 -15.186318 814.44897 4281347870
-22.947182 -15.221191 814.65399 4280886806
-22.512621 -15.193805 814.89246 4280624150
-22.04574 -15.232514 815.12994 4280754709
-21.611486 -15.2061 815.40326 4280754195
-21.146055 -15.247405 815.698 4280622610
-20.712116 -15.220533 816.02686 4280425488
-20.247694 -15.258875 816.38116 4280163089
-19.814417 -15.23039 816.77008 4279966225
-19.351076 -15.272425 817.20746 4279638030
-18.919004 -15.25124 817.69647 4279506446
-18.458673 -15.298405 818.30042 4279374860
-18.026634 -15.275432 818.85547 4279308811
-17.565712 -15.3162 819.41644 4279439625
-17.1262 -15.287468 819.68842 4279570952
-35.886337 -14.78801 817.38403 4279175942
-35.44231 -14.712267 817.1861 4279110407
-34.948212 -14.7774 816.91351 4279176712
-34.496765 -14.699792 816.49634 4279308555
-33.996689 -14.762869 816.07568 4279440142
-33.546967 -14.685566 815.68365 4279637520
-33.051022 -14.746723 815.34991 4279506448
-32.605896 -14.668703 815.04492 4279637263
-32.114357 -14.734028 814.81317 4279768333
-31.673151 -14.662616 814.58246 4279702796
-31.184399 -14.732036 814.41577 4279965452
-30.745811 -14.660231 814.23395 4280162575
-30.259109 -14.726254 814.11865 4280622610
-29.82295 -14.653152 813.9895 4281148437
-29.338009 -14.720644 813.9187 4281542679
-28.904003 -14.649467 813.83002 4282002457
-28.420061 -14.71933 813.79437 4282921243
-27.987667 -14.649043 813.73615 4283775010
-27.506119 -14.717526 813.70776 4285088293
-27.075058 -14.649593 813.66589 4285418282
-26.595156 -14.723689 813.65057 4286536754
-26.167641 -14.654496 813.66034 4291328076
-25.687439 -14.722602 813.69019 4294411619
-25.258709 -14.654941 813.78552 4292315214
-24.776875 -14.728104 813.89972 4288113983
-24.350431 -14.658778 814.07574 4285223469
-23.868786 -14.727882 814.24286 4283252254
-23.443451 -14.659181 814.46552 4281478939
-22.963503 -14.731755 814.66821 4281018645
-22.541487 -14.667408 814.90399 4280755222
-22.06196 -14.742545 815.1413 4280951572
-21.640642 -14.678959 815.41028 4280819987
-21.161663 -14.756186 815.70801 4280885010
-20.741631 -14.694122 816.0332 4280556817
-20.263126 -14.768413 816.38898 4280228881
-19.844193 -14.702789 816.77594 4279966224
-19.366375 -14.780322 817.21088 4279638031
-18.949114 -14.720597 817.69159 4279637518
-18.472878 -14.803555 818.27118 4279505933
-18.056108 -14.74568 818.80865 4279439883
-17.578043 -14.820457 819.3252 4279374089
-17.154593 -14.75553 819.58643 4279308553
-36.836906 -14.382999 818.56421 4279109894
-35.878975 -14.369125 817.68201 4279175942
-35.419426 -14.322917 817.20447 4279110663
-34.928509 -14.349979 816.90918 4279242249
-34.472477 -14.308964 816.49231 4279374091
-33.97641 -14.336624 816.06165 4279505934
-33.522324 -14.29669 815.67828 4279637264
-33.030659 -14.32193 815.33472 4279571727
-32.580704 -14.280572 815.03473 4279571469
-32.094524 -14.311096 814.7998 4279636748
-31.647739 -14.277358 814.57819 4279637003
-31.165398 -14.309565 814.41418 4279899660
-30.720467 -14.27221 814.24225 4280162831
-30.240683 -14.30259 814.12775 4280688145
-29.797754 -14.265591 814.00439 4281213973
-29.320124 -14.297114 813.93195 4281739286
-28.878235 -14.262647 813.84442 4282265113
-28.402384 -14.296459 813.8042 4282987036
-27.965923 -14.263208 813.74536 4283971876
-27.489729 -14.295309 813.71033 4285154087
-27.054577 -14.26452 813.66113 4285353510
-26.579088 -14.302086 813.64215 4287454771
-26.146141 -14.269127 813.64471 4292443727
-25.672094 -14.301246 813.67462 4294811241
-25.236115 -14.268093 813.76489 4293429838
-24.760658 -14.301847 813.88892 4288047927
-24.325895 -14.26933 814.06091 4284436524
-23.853012 -14.303985 814.24127 4282725916
-23.418764 -14.27399 814.4599 4281151002
-22.947395 -14.309721 814.67346 4280952341
-22.512709 -14.281408 814.90198 4280689686
-22.045748 -14.319707 815.13892 4280886036
-21.611124 -14.289844 815.39642 4281016851
-21.145567 -14.329664 815.68683 4281016596
-20.711142 -14.30393 816.00226 4280753681
-20.246784 -14.344266 816.35486 4280294416
-19.813389 -14.315354 816.74365 4280031760
-19.350258 -14.355574 817.18768 4279769359
-18.91818 -14.330823 817.67041 4279703311
-18.457687 -14.378341 818.26776 4279571726
-18.024525 -14.354945 818.77014 4279374348
-17.56279 -14.394441 819.29297 4279373833
-17.121889 -14.364394 819.51349 4279439880
-37.350014 -13.822055 818.82611 4278978564
-36.860107 -13.878385 818.64203 4279175430
-36.409313 -13.814285 818.31964 4279241478
-35.907379 -13.880736 817.85577 4279241735
-35.45018 -13.799903 817.37488 4279241735
-34.947968 -13.859366 816.91211 4279242248
-34.495586 -13.778084 816.47858 4279374091
-33.995293 -13.841835 816.05341 4279505933
-33.545509 -13.768329 815.66248 4279703055
-33.049343 -13.831114 815.31976 4279571726
-32.604256 -13.753783 815.01617 4279571468
-32.112389 -13.820517 814.77844 4279702283
-31.671522 -13.751626 814.55402 4279768075
-31.183041 -13.819209 814.39087 4279965197
-30.744734 -13.746196 814.21777 4280424975
-30.258286 -13.811209 814.10748 4280819216
-29.822235 -13.738748 813.97949 4281213715
-29.33742 -13.80674 813.91376 4281870357
-28.903303 -13.736464 813.82074 4282199064
-28.421013 -13.806656 813.79315 4282855450
-27.987131 -13.736665 813.72992 4284366117
-27.508783 -13.805256 813.70984 4285155109
-27.076191 -13.736563 813.6601 4285615400
-26.598265 -13.811627 813.65436 4287786038
-26.169107 -13.742647 813.6582 4292776787
-25.688383 -13.810421 813.69391 4294942057
-25.259995 -13.740437 813.78638 4292513353
-24.776131 -13.81043 813.90961 4288309816
-24.349985 -13.741258 814.07916 4285352236
-23.868177 -13.812306 814.25348 4282594329
-23.443361 -13.74674 814.47174 4281543450
-22.963472 -13.8204 814.68042 4280887061
-22.541405 -13.755726 814.90967 4280951574
-22.061924 -13.828491 815.14972 4280885780
-21.640387 -13.762626 815.41052 4281082387
-21.16147 -13.83847 815.70538 4281213203
-20.741163 -13.776825 816.02185 4280819729
-20.262474 -13.852311 816.37128 4280491537
-19.843569 -13.787919 816.75586 4280097808
-19.365536 -13.863381 817.1889 4279769616
-18.948271 -13.802514 817.66376 4279703311
-18.471516 -13.883799 818.22473 4279571726
-18.053938 -13.823306 818.71881 4279505676
-17.574736 -13.898653 819.18494 4279439881
-17.150494 -13.832809 819.40619 4279308809
