# .PCD v0.7 - Point Cloud Data file format
VERSION 0.7
FIELDS x y z rgb
SIZE 4 4 4 4
TYPE F F F U
COUNT 1 1 1 1
WIDTH 1126
HEIGHT 1
VIEWPOINT 0 0 0 1 0 0 0
POINTS 1126
DATA ascii
2.3066814 -14.861415 847.37335 4279111692
2.7917202 -14.90137 847.5976 4279177229
3.2584484 -14.870107 847.79053 4279111692
3.7436395 -14.905842 847.9856 4279111692
4.2113843 -14.884431 848.15308 4279111692
4.6965446 -14.914797 848.31995 4279111949
5.1646008 -14.883531 848.49335 4279111692
5.6491547 -14.91697 848.6012 4279111692
6.1180544 -14.879591 848.7218 4279111949
6.6019325 -14.925633 848.84082 4279046156
7.0709586 -14.890778 848.90082 4279046156
7.5541348 -14.924164 848.92273 4279046156
8.0219612 -14.892717 848.82587 4279111948
8.506093 -14.926499 848.70227 4279177485
8.971962 -14.888378 848.64758 4279111950
9.4541168 -14.91687 848.52472 4279177742
9.9162254 -14.93143 848.41632 4279243790
10.856662 -14.842128 848.20618 4279769354
-31.879662 -14.290573 845.4187 4278981392
-31.370104 -14.349974 845.22607 4279243277
-30.911425 -14.270576 845.08459 4279111950
-30.40918 -14.345159 845.02203 4279177741
-29.959642 -14.273957 844.98853 4279111950
-29.459827 -14.346472 845.00183 4279046413
-29.012318 -14.271641 845.01135 4279111949
-28.512367 -14.346399 845.02484 4279177485
-28.065294 -14.277539 845.03882 4279111949
-27.564857 -14.348908 845.04749 4279111950
-27.118286 -14.272376 845.06262 4279111950
-26.616835 -14.345543 845.06604 4279111949
-26.171007 -14.275918 845.08582 4279046157
-25.669355 -14.349372 845.10608 4279046156
-25.224707 -14.27675 845.14648 4279046156
-24.722898 -14.350757 845.17072 4279046156
-24.278446 -14.278345 845.21039 4279046156
-23.776112 -14.350397 845.2309 4278980363
-23.33209 -14.27869 845.27203 4278980363
-22.829084 -14.352124 845.27582 4278914827
-22.384394 -14.278516 845.29199 4278980107
-21.880239 -14.35061 845.2616 4278980107
-21.435217 -14.278417 845.24683 4278980107
-20.929466 -14.351721 845.18286 4278980107
-20.484249 -14.278274 845.12848 4278980363
-19.977835 -14.348093 845.04419 4278980363
-19.533062 -14.269382 844.98102 4278914826
-19.026373 -14.340726 844.89838 4278980363
-18.582405 -14.270062 844.85559 4278914571
-18.076267 -14.343092 844.79303 4278980107
-17.633474 -14.271499 844.77881 4278980107
-17.127398 -14.343629 844.73938 4278980108
-16.684681 -14.268229 844.72992 4278980108
-16.179035 -14.341579 844.70801 4279045900
-15.737027 -14.269638 844.71234 4279046156
-15.231113 -14.341713 844.69293 4279046156
-14.789503 -14.268279 844.69598 4279111692
-14.283015 -14.340897 844.67981 4279046156
-13.842206 -14.268903 844.69031 4279046156
-13.335395 -14.342884 844.68243 4279046156
-12.89469 -14.269303 844.6817 4279046156
-12.387378 -14.339841 844.6701 4279046156
-11.947494 -14.266717 844.67706 4279046156
-11.439889 -14.339559 844.67426 4279111949
-11.000556 -14.266399 844.68689 4279111949
-10.492585 -14.339411 844.69495 4279046413
-10.053852 -14.270417 844.73114 4279111950
-9.5457287 -14.345736 844.76459 4279111949
-9.1076384 -14.272512 844.81702 4279177486
-8.5989246 -14.343718 844.85571 4279046670
-8.1610136 -14.269062 844.91101 4279111950
-7.6519685 -14.342417 844.95148 4279243278
-7.2143521 -14.27266 844.99634 4279177741
-6.704741 -14.348701 845.01404 4279177741
-6.2671041 -14.276873 845.0426 4279177741
-5.7569985 -14.346832 845.06244 4279112206
-5.3201528 -14.272481 845.10034 4279177742
-4.8095617 -14.348211 845.13031 4279177742
-4.3729591 -14.278889 845.18384 4279177742
-3.8619044 -14.351259 845.23749 4279177485
-3.4258876 -14.278251 845.31323 4279111950
-2.9143283 -14.351612 845.37677 4279177742
-2.4785652 -14.279033 845.44757 4279177742
-1.9667076 -14.355277 845.50488 4279243535
-1.5307378 -14.285765 845.58203 4279243535
-1.0185407 -14.357594 845.65466 4279243535
-0.58270347 -14.284505 845.76587 4279309071
-0.069596097 -14.360026 845.88501 4279177743
0.36560747 -14.291544 846.0592 4279177742
0.87982476 -14.368096 846.25592 4279046414
1.315338 -14.297193 846.48663 4279111693
1.8301309 -14.374271 846.73401 4279046157
2.2657497 -14.307793 846.9729 4279046156
2.7814929 -14.386688 847.20087 4279111693
3.2170148 -14.315538 847.39624 4279111693
3.7333996 -14.388498 847.58264 4279111693
4.168766 -14.317183 847.74219 4279177485
4.6857343 -14.395465 847.89319 4279111949
5.1206522 -14.324821 848.0423 4279111692
5.6384368 -14.400993 848.14966 4279046156
6.0730004 -14.329963 848.26642 4279111693
6.5911999 -14.403257 848.36328 4279046156
7.0253444 -14.3304 848.41907 4279111693
7.5430236 -14.405088 848.43567 4279046413
7.9759517 -14.333035 848.37726 4279111949
8.4927053 -14.408157 848.2832 4279177230
8.9255276 -14.326105 848.23572 4279243023
9.4435358 -14.399619 848.17627 4279177999
9.876832 -14.351359 848.26562 4279177998
10.392645 -14.422534 848.36841 4279243533
10.826631 -14.321913 848.58356 4279637264
-31.845022 -13.886595 845.0484 4278589457
-31.333647 -13.906993 844.85651 4279243534
-30.879562 -13.865294 844.71295 4279177999
-30.375612 -13.90018 844.63989 4279243279
-29.926779 -13.867789 844.5899 4279243279
-29.42625 -13.901917 844.59155 4279243279
-28.978882 -13.866473 844.58716 4279308814
-28.478745 -13.904566 844.59595 4279243279
-28.029093 -13.869907 844.6076 4279243278
-27.531952 -13.899346 844.61731 4279177742
-27.079691 -13.862666 844.63458 4279111950
-26.584936 -13.899011 844.64191 4279111950
-26.129858 -13.867477 844.66016 4279243278
-25.638483 -13.906756 844.6814 4279111949
-25.183657 -13.867963 844.71411 4279046413
-24.692648 -13.902807 844.73541 4279046413
-24.237288 -13.870113 844.76807 4279046413
-23.746218 -13.908148 844.78912 4279046156
-23.290779 -13.871435 844.82574 4279046156
-22.799709 -13.904165 844.83307 4279046156
-22.343178 -13.866707 844.84711 4279046156
-21.851797 -13.905967 844.82825 4279045900
-21.394535 -13.872295 844.81238 4279045900
-20.902252 -13.905311 844.76013 4279045900
-20.444113 -13.867933 844.70789 4279045900
-19.951954 -13.902955 844.63947 4279045900
-19.493311 -13.86324 844.57996 4278980363
-19.00153 -13.896248 844.50958 4278980363
-18.543093 -13.861035 844.46649 4278980363
-18.052326 -13.897667 844.41241 4278980364
-17.594231 -13.864205 844.39441 4279045900
-17.104286 -13.899846 844.35742 4279045901
-16.645781 -13.863256 844.34235 4279045901
-16.156698 -13.899134 844.32458 4279111693
-15.698 -13.86187 844.3269 4279111949
-15.209484 -13.895211 844.31256 4279111949
-14.750615 -13.860465 844.31781 4279177741
-14.262299 -13.897211 844.30804 4279177486
-13.803208 -13.860908 844.32123 4279177742
-13.315466 -13.898272 844.31818 4279111949
-12.855814 -13.862224 844.32019 4279111949
-12.368614 -13.895741 844.3103 4279177485
-11.911098 -13.861168 844.31903 4279243277
-11.421489 -13.896083 844.31445 4279177742
-10.966453 -13.86072 844.32642 4279112206
-10.474624 -13.896408 844.3316 4279177998
-10.02197 -13.864549 844.36267 4279177998
-9.5287352 -13.900577 844.39624 4279177999
-9.0752535 -13.865944 844.44086 4279112463
-8.5826979 -13.898652 844.47858 4279046926
-8.1264362 -13.863379 844.52936 4279112463
-7.6365561 -13.898588 844.56842 4279243535
-7.1801329 -13.868384 844.6123 4279309326
-6.6898546 -13.903138 844.6311 4279309070
-6.2333488 -13.864987 844.65808 4279243534
-5.7430887 -13.901377 844.68585 4279243535
-5.2886086 -13.870495 844.71979 4279177999
-4.796206 -13.906006 844.75604 4279177998
-4.3408775 -13.871588 844.80786 4279243535
-3.849246 -13.904802 844.86438 4279243279
-3.3937399 -13.873333 844.93756 4279177742
-2.9020979 -13.909096 844.99915 4279177998
-2.4464447 -13.872875 845.06891 4279178255
-1.9551973 -13.909678 845.12848 4279177998
-1.4987863 -13.879956 845.20038 4279243791
-1.0079079 -13.912776 845.27466 4279309328
-0.54835171 -13.877641 845.37909 4279309328
-0.059905607 -13.914357 845.50043 4279243791
0.40266663 -13.881882 845.66437 4279112463
0.88893801 -13.922071 845.85248 4279112206
1.354504 -13.891505 846.07446 4279111951
1.8383754 -13.929192 846.30426 4279111693
2.3044806 -13.895616 846.53534 4279046157
2.7888136 -13.937282 846.74414 4279111693
3.2552509 -13.904735 846.95435 4279111693
3.7396612 -13.940361 847.13599 4279177485
4.2068105 -13.907755 847.30566 4279177485
4.6914463 -13.950128 847.45166 4279111948
5.1589961 -13.917489 847.59436 4279177485
5.6431479 -13.952852 847.70563 4279177485
6.1112223 -13.918174 847.81342 4279177485
6.5944433 -13.957464 847.87408 4279177485
7.0628057 -13.922779 847.92908 4279177484
7.5456538 -13.959013 847.93195 4279177741
8.0137968 -13.922515 847.9234 4279243277
8.4957952 -13.958043 847.87079 4279243279
8.9639645 -13.920652 847.86462 4279111950
9.4464102 -13.952666 847.87073 4279177742
9.9152651 -13.939802 848.00964 4279309070
10.401158 -13.959828 848.20728 4279440142
10.865993 -13.921282 848.51215 4279571983
-31.85722 -13.333348 844.69153 4279048210
-31.351006 -13.392656 844.50171 4279375375
-30.892117 -13.311289 844.35455 4279243793
-30.38966 -13.385598 844.27185 4279178001
-29.93935 -13.315874 844.21069 4279309073
-29.439409 -13.388725 844.20087 4279309072
-28.991493 -13.314982 844.18884 4279243536
-28.491596 -13.389763 844.19537 4279309327
-28.04232 -13.317141 844.20227 4279243535
-27.544607 -13.383473 844.21362 4279243792
-27.094004 -13.308873 844.23517 4279177999
-26.597944 -13.38803 844.24872 4279112206
-26.145426 -13.314087 844.27032 4279243535
-25.652094 -13.387438 844.29193 4279243534
-25.199862 -13.316263 844.32446 4279112206
-24.70643 -13.390862 844.3457 4279112206
-24.254122 -13.316974 844.37317 4279111950
-23.757458 -13.391651 844.39227 4279111949
-23.308315 -13.317733 844.42352 4279111949
-22.808477 -13.389734 844.43066 4279177485
-22.361628 -13.316848 844.4425 4279111949
-21.858389 -13.389214 844.42548 4279111949
-21.413786 -13.316695 844.41376 4279046413
-20.909039 -13.3876 844.36566 4279111949
-20.464445 -13.314431 844.31891 4279111693
-19.958988 -13.387341 844.26038 4279111692
-19.514832 -13.312692 844.2088 4279046156
-19.009356 -13.382792 844.14868 4279046412
-18.565592 -13.310232 844.10748 4279046157
-18.060398 -13.382057 844.05804 4279046413
-17.617853 -13.311509 844.04114 4279046157
-17.114763 -13.385471 844.00391 4279111694
-16.670082 -13.310904 843.98608 4279111950
-16.169603 -13.3828 843.96771 4279112463
-15.725611 -13.310427 843.96741 4279177999
-15.224971 -13.384112 843.95544 4279177998
-14.781439 -13.309733 843.95953 4279112206
-14.277929 -13.381789 843.95306 4279177998
-13.837766 -13.309642 843.96777 4279309328
-13.331087 -13.384923 843.96686 4279112463
-12.888687 -13.313261 843.97266 4279112207
-12.38411 -13.384038 843.96503 4279243534
-11.939842 -13.309063 843.97974 4279177998
-11.437338 -13.382339 843.97638 4279309327
-10.993878 -13.31054 843.9903 4279243791
-10.490841 -13.38386 843.99597 4279309840
-10.050007 -13.311153 844.02448 4279244048
-9.5447016 -13.385326 844.05432 4279309584
-9.1043272 -13.313039 844.09393 4279178512
-8.5986872 -13.386994 844.12402 4279112976
-8.1586065 -13.314411 844.16919 4279243792
-7.6526785 -13.386257 844.20349 4279243791
-7.2129545 -13.313483 844.24536 4279243791
-6.7061062 -13.3874 844.26685 4279309584
-6.269031 -13.314111 844.29425 4279243792
-5.7592158 -13.388677 844.32831 4279309328
-5.3228011 -13.31787 844.36615 4279243792
-4.8126616 -13.39053 844.40686 4279178256
-4.3764429 -13.318685 844.45868 4279243792
-3.8660183 -13.392236 844.51501 4279243791
-3.4276927 -13.320309 844.58521 4279243535
-2.9187834 -13.394845 844.64471 4279178255
-2.4810889 -13.322581 844.71088 4279112719
-1.9718711 -13.39728 844.7688 4279178512
-1.531698 -13.325151 844.84009 4279244048
-1.0245358 -13.398026 844.91443 4279309328
-0.58442372 -13.323502 845.01831 4279244048
-0.074280314 -13.400356 845.14233 4279309840
0.36531579 -13.330511 845.30206 4279178255
0.87653977 -13.405503 845.4859 4279112206
1.3141239 -13.334713 845.69867 4279112207
1.8280408 -13.411532 845.91412 4279046414
2.2634623 -13.342964 846.13092 4279111950
2.7782722 -13.419827 846.32489 4279046414
3.2135053 -13.350076 846.51605 4279111949
3.7291427 -13.423219 846.68085 4279243021
4.1638803 -13.353356 846.83179 4279111949
4.6802058 -13.429837 846.96405 4279177484
5.1146851 -13.357986 847.08813 4279177741
5.6316733 -13.432961 847.18896 4279177484
6.065515 -13.362779 847.28668 4279177485
6.5829725 -13.43821 847.34747 4279243533
7.0166068 -13.366619 847.40131 4279046668
7.5339499 -13.43752 847.4176 4279178253
7.9669147 -13.364563 847.43262 4279243534
8.484376 -13.435641 847.42261 4279374863
8.9171724 -13.361962 847.47156 4279243535
9.4362078 -13.43899 847.5072 4279309328
9.8695459 -13.375532 847.67761 4279309071
10.3851 -13.454627 847.85797 4279440399
10.823607 -13.373345 848.10449 4279505935
-31.825886 -12.928457 844.39465 4278656274
-31.311598 -12.950605 844.20203 4279375378
-30.863098 -12.910173 844.04987 4279244563
-30.350683 -12.940365 843.95496 4279375379
-29.909735 -12.907534 843.88397 4279375122
-29.400505 -12.943023 843.86395 4279440659
-28.961391 -12.913262 843.84515 4279375123
-28.453424 -12.945903 843.85217 4279375122
-28.011709 -12.909359 843.85797 4279309585
-27.507454 -12.941721 843.87653 4279375378
-27.063282 -12.909618 843.89978 4279375377
-26.561905 -12.941995 843.9212 4279244049
-26.114666 -12.905836 843.94434 4279374864
-25.616562 -12.943019 843.96912 4279374865
-25.169294 -12.910886 843.99823 4279309327
-24.671602 -12.946401 844.02295 4279243535
-24.223528 -12.913795 844.04724 4279177743
-23.726009 -12.949323 844.07062 4279243536
-23.277699 -12.912201 844.09735 4279308815
-22.780159 -12.945128 844.10699 4279308816
-22.328514 -12.911418 844.11694 4279243279
-21.832987 -12.946461 844.10254 4279177742
-21.380989 -12.910225 844.08948 4279177742
-20.884521 -12.944385 844.04327 4279177742
-20.431435 -12.910664 843.99921 4279177487
-19.935604 -12.946028 843.94824 4279177486
-19.481846 -12.907802 843.90143 4279177485
-18.986719 -12.939406 843.84906 4279177742
-18.5331 -12.904662 843.81055 4279177742
-18.03841 -12.94127 843.76556 4279177743
-17.585047 -12.908554 843.74744 4279177743
-17.090998 -12.943452 843.71039 4279177744
-16.639902 -12.906086 843.68988 4279112463
-16.144243 -12.93882 843.67175 4279178256
-15.692979 -12.904809 843.66882 4279309584
-15.197702 -12.938981 843.65869 4279309585
-14.746315 -12.904529 843.66321 4279243792
-14.251417 -12.938599 843.65979 4279309584
-13.799737 -12.904369 843.67456 4279440913
-13.305364 -12.940776 843.67511 4279309586
-12.85321 -12.907965 843.68127 4279309329
-12.359303 -12.941786 843.67645 4279309328
-11.909581 -12.907296 843.69305 4279309328
-11.413019 -12.938365 843.69092 4279375121
-10.965903 -12.905157 843.70703 4279309841
-10.467035 -12.941321 843.71368 4279309841
-10.022392 -12.90962 843.74103 4279375634
-9.521699 -12.940948 843.76923 4279441171
-9.0761547 -12.907265 843.80273 4279375634
-8.5762777 -12.941885 843.82831 4279309841
-8.1276836 -12.91089 843.86877 4279244304
-7.6306143 -12.944831 843.89886 4279375121
-7.1818047 -12.913218 843.93945 4279375376
-6.6847324 -12.943017 843.96191 4279375377
-6.2357349 -12.90638 843.99115 4279375122
-5.7387004 -12.942559 844.02887 4279375379
-5.2923069 -12.91427 844.06738 4279375379
-4.7925811 -12.947255 844.10999 4279375378
-4.3453679 -12.914296 844.16205 4279375378
-3.8465173 -12.947909 844.21686 4279375378
-3.3986821 -12.918479 844.28357 4279375377
-2.9001765 -12.951377 844.34088 4279375377
-2.4521942 -12.917676 844.40497 4279310097
-1.9538424 -12.952943 844.46332 4279309841
-1.505531 -12.922266 844.5329 4279375378
-1.0071675 -12.954162 844.60736 4279375378
-0.5556733 -12.921939 844.70837 4279309584
-0.059869338 -12.956396 844.83124 4279309841
0.39728135 -12.923818 844.98468 4279244048
0.88800412 -12.959707 845.16272 4279243792
1.3482327 -12.928178 845.36859 4279178255
1.8366522 -12.967071 845.57288 4279177999
2.2974904 -12.937964 845.78497 4279112462
2.786082 -12.977036 845.96826 4279112206
3.2451096 -12.942067 846.15369 4279112206
3.7358277 -12.977758 846.30975 4279243278
4.1957812 -12.94933 846.44995 4279243277
4.6860871 -12.985816 846.57306 4279309071
5.1468019 -12.951674 846.68488 4279374606
5.6366072 -12.987675 846.77588 4279243277
6.0976844 -12.954299 846.86407 4279177998
6.5868912 -12.99128 846.91821 4279243534
7.048223 -12.959508 846.97211 4279178253
7.537365 -12.993866 846.99298 4279112717
7.9985433 -12.955341 847.01752 4279112718
8.4872446 -12.989768 847.02722 4279243791
8.9493771 -12.956346 847.10742 4279243791
9.4385548 -12.991936 847.17871 4279243536
9.9029818 -12.963552 847.37073 4279243535
10.395382 -13.004166 847.67102 4279440400
10.857268 -12.976102 847.96118 4279375119
-31.84198 -12.37693 844.13318 4279180567
-31.335674 -12.437973 843.93903 4279704338
-30.879137 -12.358571 843.78296 4279507478
-30.376076 -12.431705 843.67432 4279573014
-29.925505 -12.360348 843.59583 4279441429
-29.4249 -12.433113 843.55981 4279506966
-28.977062 -12.360319 843.53693 4279638038
-28.47714 -12.432404 843.53772 4279441430
-28.02824 -12.360357 843.54596 4279441172
-27.531013 -12.432305 843.56567 4279441428
-27.080521 -12.357497 843.59546 4279441428
-26.585615 -12.432631 843.62207 4279310355
-26.133047 -12.359676 843.65015 4279310098
-25.640907 -12.433072 843.67395 4279506706
-25.188286 -12.360917 843.70355 4279440914
-24.695738 -12.435893 843.72491 4279375378
-24.24305 -12.36166 843.74915 4279375122
-23.747286 -12.434508 843.76941 4279309586
-23.298103 -12.36158 843.79523 4279374866
-22.798742 -12.436626 843.80396 4279243537
-22.352055 -12.362391 843.81445 4279309329
-21.849485 -12.431572 843.80133 4279178256
-21.40522 -12.361537 843.79218 4279178256
-20.90103 -12.433883 843.75024 4279178256
-20.45681 -12.359815 843.71204 4279309073
-19.951973 -12.431206 843.67017 4279243536
-19.508417 -12.3578 843.63007 4279243536
-19.00363 -12.430585 843.5874 4279178256
-18.560259 -12.358055 843.54871 4279243792
-18.055506 -12.42829 843.50635 4279178257
-17.613008 -12.358241 843.4826 4279375122
-17.110571 -12.431294 843.44299 4279309586
-16.665867 -12.35603 843.41382 4279309586
-16.165955 -12.427695 843.39221 4279309842
-15.721817 -12.355824 843.38086 4279441170
-15.221862 -12.429431 843.37073 4279441171
-14.778695 -12.35587 843.37262 4279441171
-14.275588 -12.429111 843.37018 4279441427
-13.835996 -12.356673 843.38483 4279375891
-13.329309 -12.430313 843.38721 4279441428
-12.887341 -12.36015 843.39734 4279572245
-12.383201 -12.431214 843.39594 4279375636
-11.939097 -12.355501 843.41937 4279440915
-11.437243 -12.427933 843.41925 4279441172
-10.993979 -12.357576 843.44122 4279572501
-10.491538 -12.432029 843.44781 4279441429
-10.050933 -12.357274 843.47522 4279507221
-9.5458918 -12.429475 843.49835 4279507221
-9.1055746 -12.35874 843.52722 4279638549
-8.6004677 -12.433235 843.54376 4279572756
-8.1601591 -12.361806 843.578 4279441171
-7.654686 -12.432689 843.60016 4279441426
-7.2151279 -12.359486 843.63861 4279375891
-6.7088771 -12.431965 843.65991 4279441428
-6.2722988 -12.358994 843.6886 4279572501
-5.7627983 -12.433846 843.72797 4279506965
-5.3266411 -12.364641 843.76837 4279572501
-4.8167906 -12.436417 843.81201 4279441429
-4.3809423 -12.363605 843.86554 4279572757
-3.8711555 -12.437828 843.92029 4279572756
-3.4326963 -12.36647 843.98834 4279441427
-2.9245872 -12.438993 844.04724 4279572756
-2.4866922 -12.367786 844.11493 4279572756
-1.9781752 -12.443309 844.17688 4279572757
-1.5378776 -12.37176 844.25128 4279507221
-1.0313445 -12.444288 844.32855 4279441428
-0.58904815 -12.369802 844.43152 4279441428
-0.081589587 -12.445092 844.55511 4279375891
0.3626084 -12.372339 844.70593 4279310098
0.86895752 -12.447313 844.88055 4279309841
1.3128126 -12.374996 845.0777 4279244304
1.8196881 -12.454294 845.27325 4279309840
2.2614582 -12.386392 845.47424 4279112719
2.7689033 -12.46135 845.64624 4279112718
3.2081642 -12.388608 845.81885 4279178255
3.7187102 -12.465466 845.96204 4279244049
4.1552796 -12.396371 846.08856 4279375121
4.6688848 -12.470039 846.19861 4279309328
5.1029243 -12.39642 846.29663 4279243791
5.6193991 -12.471856 846.37653 4279178255
6.0527415 -12.404555 846.45435 4279309329
6.5697947 -12.478215 846.50684 4279244048
7.0028896 -12.404219 846.55975 4279244048
7.5197949 -12.473702 846.58575 4279244305
7.9523993 -12.400597 846.62128 4279244304
8.4694967 -12.473362 846.64221 4279310097
8.9023657 -12.404894 846.72919 4279309842
9.4208527 -12.48021 846.7923 4279178513
9.8543587 -12.408723 846.98065 4279309586
10.37122 -12.487186 847.20667 4279506706
10.810174 -12.417264 847.45465 4279703314
-31.813919 -11.974647 843.91559 4278789656
-31.301226 -11.997557 843.7193 4279769877
-30.85371 -11.958929 843.55591 4279573784
-30.338968 -11.989407 843.43683 4279638807
-29.899719 -11.955179 843.35107 4279638806
-29.387878 -11.988633 843.30475 4279704087
-28.950874 -11.957151 843.27612 4279704087
-28.440907 -11.99093 843.27539 4279704088
-28.001253 -11.956592 843.28278 4279704087
-27.495794 -11.988454 843.30756 4279638807
-27.053402 -11.957266 843.33636 4279507734
-26.551386 -11.991948 843.36975 4279376404
-26.105532 -11.953322 843.39911 4279573269
-25.607008 -11.990243 843.42639 4279638549
-25.160894 -11.960674 843.45441 4279704085
-24.662319 -11.994386 843.47791 4279572757
-24.215481 -11.957445 843.50092 4279572500
-23.715044 -11.992529 843.52295 4279441428
-23.270161 -11.959427 843.54535 4279441172
-22.767351 -11.992432 843.55493 4279375379
-22.32136 -11.957662 843.56403 4279375379
-21.818775 -11.990737 843.55249 4279309843
-21.374537 -11.958436 843.54358 4279375634
-20.871138 -11.992127 843.50488 4279309841
-20.426029 -11.958168 843.46991 4279309586
-19.923454 -11.98926 843.43323 4279440658
-19.477638 -11.951735 843.39709 4279375378
-18.975725 -11.987126 843.36023 4279309585
-18.529648 -11.95538 843.32294 4279309842
-18.028147 -11.98659 843.28424 4279375634
-17.582211 -11.952868 843.25696 4279506964
-17.083147 -11.989509 843.21796 4279506964
-16.63756 -11.955769 843.18451 4279572500
-16.138855 -11.98823 843.16138 4279572500
-15.69089 -11.952253 843.14484 4279572756
-15.19496 -11.98659 843.13507 4279572756
-14.744656 -11.953011 843.1347 4279638549
-14.24955 -11.988217 843.1347 4279638805
-13.798759 -11.951764 843.14862 4279704598
-13.30407 -11.987034 843.15332 4279638806
-12.852932 -11.955447 843.16364 4279704342
-12.358615 -11.990987 843.16608 4279704342
-11.910407 -11.956906 843.19055 4279704341
-11.413272 -11.988987 843.19275 4279704342
-10.967782 -11.952957 843.21594 4279704342
-10.468125 -11.986341 843.22437 4279704343
-10.025248 -11.955256 843.2522 4279704342
-9.523242 -11.988625 843.27209 4279704342
-9.079423 -11.957576 843.29749 4279901206
-8.5780439 -11.990158 843.30823 4279835671
-8.131218 -11.956654 843.33893 4279704085
-7.6324673 -11.991952 843.35596 4279638549
-7.1855726 -11.96134 843.39197 4279638805
-6.6872029 -11.991993 843.41394 4279573012
-6.2395668 -11.954161 843.44403 4279573013
-5.7420769 -11.990044 843.4826 4279573013
-5.2971034 -11.962306 843.5257 4279638805
-4.7964301 -11.993372 843.56653 4279638549
-4.3508434 -11.96003 843.62201 4279769878
-3.8509531 -11.996877 843.67444 4279704343
-3.4049137 -11.967835 843.74023 4279704341
-2.9052541 -11.998918 843.80005 4279769879
-2.4589732 -11.963198 843.86743 4279835671
-1.9597929 -11.999115 843.93188 4279770136
-1.5130082 -11.969312 844.00903 4279704343
-1.0112785 -12.000618 844.08789 4279573270
-0.56338513 -11.969144 844.19409 4279507477
-0.062261201 -12.003703 844.31757 4279507220
0.38964662 -11.970991 844.46838 4279310354
0.88712764 -12.004143 844.63977 4279310097
1.3398157 -11.972333 844.83142 4279310097
1.8350546 -12.008761 845.01868 4279375633
2.2884049 -11.980423 845.21411 4279310097
2.7838101 -12.0178 845.37683 4279309841
3.2349806 -11.986508 845.54364 4279244305
3.7327654 -12.022549 845.67676 4279375890
4.1848574 -11.990942 845.79828 4279441427
4.6820793 -12.025414 845.90002 4279441170
5.1349211 -11.994452 845.99213 4279441170
5.6293306 -12.029675 846.06165 4279441171
6.0848608 -11.997242 846.13391 4279441428
6.5787134 -12.032697 846.18268 4279506964
7.0344143 -11.999008 846.23578 4279507219
7.5283084 -12.030691 846.26178 4279507220
7.984283 -11.996051 846.30023 4279441683
8.477747 -12.032409 846.3269 4279507220
8.9347811 -11.999201 846.42773 4279573013
9.4286537 -12.031841 846.50537 4279507221
9.887495 -12.003069 846.70258 4279441685
10.382392 -12.046562 846.97528 4279572499
10.842884 -12.015615 847.24463 4279704084
-31.833174 -11.425687 843.72235 4279313694
-31.326416 -11.486991 843.52679 4280033814
-30.872559 -11.409112 843.35773 4279639835
-30.368813 -11.481669 843.22742 4279771162
-29.918022 -11.410052 843.1355 4279770907
-29.416891 -11.47965 843.07556 4279902235
-28.96908 -11.406481 843.04224 4279705115
-28.468866 -11.479198 843.03381 4279770907
-28.020164 -11.406741 843.04205 4279705115
-27.523422 -11.479967 843.0672 4279574298
-27.072687 -11.409086 843.09717 4279508505
-26.578814 -11.484191 843.13239 4279443225
-26.125719 -11.408356 843.16266 4279639321
-25.634787 -11.482055 843.19031 4279639320
-25.181664 -11.410048 843.21759 4279639064
-24.690147 -11.483258 843.23865 4279507991
-24.236967 -11.410532 843.26428 4279507735
-23.742075 -11.483405 843.28308 4279573527
-23.292566 -11.408684 843.30804 4279376150
-22.793591 -11.482825 843.31641 4279376149
-22.347141 -11.411133 843.32935 4279375894
-21.844624 -11.483828 843.32013 4279310613
-21.400743 -11.412526 843.31519 4279310612
-20.897467 -11.480451 843.28162 4279376148
-20.453487 -11.406852 843.2547 4279375892
-19.9494 -11.479188 843.22321 4279506964
-19.506218 -11.408024 843.19281 4279441428
-19.001884 -11.482253 843.16101 4279375891
-18.558853 -11.408694 843.12616 4279310355
-18.054453 -11.47593 843.08966 4279376404
-17.612034 -11.404888 843.05756 4279507478
-17.110109 -11.479154 843.01782 4279573014
-16.665234 -11.406734 842.97784 4279704087
-16.165915 -11.479672 842.95233 4279638806
-15.721558 -11.40652 842.92731 4279507734
-15.222451 -11.479029 842.91577 4279573782
-14.779004 -11.405663 842.91302 4279639320
-14.276602 -11.478327 842.91138 4279705369
-13.837314 -11.407563 842.9256 4279770905
-13.330853 -11.479429 842.93335 4279705369
-12.888972 -11.407887 842.94641 4279705369
-12.385518 -11.481733 842.95422 4279836696
-11.941103 -11.407213 842.98291 4279639831
-11.440032 -11.477374 842.98883 4279836696
-10.996541 -11.406219 843.01837 4279770905
-10.49484 -11.481235 843.02454 4279770905
-10.054274 -11.405749 843.05304 4279705113
-9.5494804 -11.478915 843.06793 4279639575
-9.1091623 -11.408378 843.09058 4279705112
-8.604578 -11.481103 843.09399 4279901977
-8.1640091 -11.41183 843.12036 4279901721
-7.6589274 -11.483314 843.13147 4279639577
-7.2192287 -11.409337 843.16626 4279639064
-6.7135248 -11.480562 843.18457 4279507990
-6.2773113 -11.409277 843.21436 4279442198
-5.7680306 -11.484307 843.25043 4279508245
-5.3321238 -11.412295 843.29297 4279376917
-4.822567 -11.482718 843.33081 4279639318
-4.3870912 -11.412752 843.38678 4279573785
-3.8775146 -11.48801 843.43799 4279639833
-3.43891 -11.41541 843.50574 4279705114
-2.9314356 -11.486482 843.56696 4279770905
-2.4934504 -11.417719 843.6369 4279770649
-1.9854481 -11.491097 843.70605 4279836442
-1.5450181 -11.417985 843.78827 4279705114
-1.0391667 -11.494092 843.87048 4279639577
-0.59656888 -11.420913 843.98053 4279573527
-0.089734629 -11.493807 844.10596 4279573269
0.35518679 -11.4193 844.2583 4279376147
0.86052698 -11.493876 844.42908 4279376147
1.3048475 -11.423413 844.61609 4279375890
1.810792 -11.499736 844.79834 4279441170
2.2529745 -11.428481 844.98523 4279441427
2.759572 -11.506568 845.1402 4279441684
3.1990554 -11.437648 845.29663 4279441684
3.7088187 -11.512537 845.41986 4279507733
4.1453724 -11.439927 845.53076 4279507733
4.6579361 -11.513752 845.62012 4279507477
5.0917015 -11.443927 845.70001 4279638550
5.6075873 -11.515767 845.75934 4279704343
6.0404119 -11.44448 845.82294 4279704600
6.5573716 -11.519574 845.86554 4279704856
6.9897017 -11.448051 845.91748 4279704856
7.5065393 -11.51895 845.94257 4279705112
7.9388099 -11.444555 845.98749 4279639319
8.455699 -11.514667 846.01697 4279639320
8.8884115 -11.44828 846.10742 4279770393
9.4061918 -11.52584 846.17352 4279639321
9.8399849 -11.452638 846.3595 4279770393
10.357631 -11.526808 846.58691 4279704599
10.794975 -11.458719 846.84247 4279966999
-31.801058 -11.025384 843.57538 4278596382
-31.294477 -11.048613 843.3786 4280230685
-30.840738 -11.005488 843.20044 4279969056
-30.333572 -11.040363 843.0636 4280296994
-29.885883 -11.003554 842.96375 4280428323
-29.381691 -11.038271 842.89587 4280362531
-28.936066 -11.003895 842.85596 4280231202
-28.434416 -11.037992 842.84375 4280165666
-27.989582 -11.00361 842.85052 4280100387
-27.489592 -11.041032 842.87616 4280034593
-27.045404 -11.008538 842.9035 4279969055
-26.545757 -11.045111 842.9411 4279968800
-26.101196 -11.004518 842.97107 4280034334
-25.60215 -11.038671 843.00165 4280099615
-25.157074 -11.009797 843.02692 4279968284
-24.657558 -11.045154 843.04651 4279902749
-24.211903 -11.006468 843.07019 4279902492
-23.710131 -11.0419 843.08496 4279901981
-23.266844 -11.009571 843.10681 4279770650
-22.762346 -11.042225 843.11249 4279704859
-22.31818 -11.00818 843.12274 4279639322
-21.814281 -11.041883 843.11597 4279573529
-21.372034 -11.007417 843.11267 4279508247
-20.867634 -11.041209 843.08691 4279573528
-20.424627 -11.007308 843.06537 4279573527
-19.921036 -11.039284 843.03979 4279638808
-19.476917 -11.00402 843.01489 4279638806
-18.974342 -11.039877 842.9892 4279573015
-18.529764 -11.006535 842.95581 4279507734
-18.027285 -11.038423 842.92236 4279639063
-17.582954 -11.002344 842.88544 4279770648
-17.082863 -11.036501 842.8465 4279836186
-16.638744 -11.004893 842.80023 4279901978
-16.139021 -11.041434 842.77209 4280033309
-15.692168 -11.00482 842.73895 4280033563
-15.195507 -11.037155 842.72614 4279968284
-14.746109 -11.004105 842.71832 4280034333
-14.250401 -11.0406 842.71686 4280100126
-13.800814 -11.001836 842.73016 4280165917
-13.305573 -11.037543 842.74011 4280165662
-12.855622 -11.005009 842.75299 4280165662
-12.360782 -11.041548 842.7652 4280100126
-11.9107 -11.007132 842.79291 4280034588
-11.41603 -11.03894 842.8031 4280034590
-10.96564 -11.000991 842.83191 4280034333
-10.471334 -11.039165 842.8399 4280099615
-10.020747 -11.006432 842.86792 4279968541
-9.5266991 -11.040526 842.88116 4279968285
-9.075531 -11.005037 842.90216 4280230941
-8.5817604 -11.039347 842.90283 4280296479
-8.1304989 -11.005131 842.92609 4280165149
-7.6362505 -11.041109 842.93597 4280033821
-7.1849418 -11.007412 842.96649 4279968027
-6.6914659 -11.045076 842.98804 4279967773
-6.2391253 -11.008781 843.01624 4279902490
-5.7468982 -11.0421 843.05328 4279902492
-5.2943149 -11.006277 843.09723 4280165405
-4.8018265 -11.041122 843.13446 4280099616
-4.3490267 -11.009211 843.1922 4280034080
-3.856822 -11.048853 843.24432 4279902751
-3.4033837 -11.013551 843.31091 4279903006
-2.9117963 -11.047463 843.3764 4279968286
-2.4579492 -11.013677 843.44501 4279902492
-1.9668006 -11.050211 843.51947 4279902493
-1.5126456 -11.015562 843.60455 4279902492
-1.0184902 -11.053268 843.69092 4279836955
-0.56643414 -11.019358 843.80511 4279770648
-0.067279279 -11.051472 843.93152 4279639063
0.38367045 -11.01622 844.08575 4279507732
0.88411999 -11.049483 844.25372 4279441939
1.3310966 -11.021388 844.43628 4279441939
1.8317112 -11.057624 844.61133 4279507219
2.2790828 -11.029033 844.79193 4279507219
2.7775068 -11.065612 844.93958 4279573268
3.2248218 -11.035168 845.08972 4279573268
3.7236464 -11.070406 845.20416 4279639062
4.1737685 -11.037991 845.31201 4279770647
4.6723442 -11.072111 845.39319 4279770648
5.1229768 -11.039671 845.47131 4279836183
5.6185813 -11.075165 845.52356 4279901978
6.0721607 -11.042299 845.5849 4280033307
6.5673928 -11.076292 845.625 4279968027
7.0211849 -11.043357 845.67719 4279968026
7.5163326 -11.076871 845.70233 4279902490
7.9703507 -11.041446 845.74841 4279902490
8.4652586 -11.076196 845.77783 4279902234
8.9202662 -11.045039 845.86884 4279968026
9.4154606 -11.080296 845.93604 4279968026
9.8720093 -11.04951 846.12323 4280099355
10.367254 -11.089284 846.35504 4280033306
10.828578 -11.057315 846.61853 4280033561
-31.822454 -10.480837 843.4411 4279710761
-31.315559 -10.540299 843.2467 4280954399
-30.861765 -10.457603 843.06403 4280692009
-30.357361 -10.526258 842.91925 4280823595
-29.906544 -10.455868 842.81543 4280954923
-29.404726 -10.530216 842.73895 4280692011
-28.956923 -10.459287 842.69354 4280954411
-28.456329 -10.526952 842.67316 4280692012
-28.011019 -10.454818 842.67871 4280954669
-27.511572 -10.530866 842.70227 4280692525
-27.066942 -10.461651 842.72736 4280626986
-26.567282 -10.531616 842.76239 4280495913
-26.12331 -10.45927 842.78992 4280495656
-25.62343 -10.532407 842.8205 4280560935
-25.1796 -10.461631 842.84338 4280429606
-24.678675 -10.531427 842.86017 4280364070
-24.23501 -10.460942 842.88306 4280363301
-23.733829 -10.533512 842.89386 4280231716
-23.290768 -10.461732 842.91675 4280296740
-22.788746 -10.533183 842.92047 4280099874
-22.345596 -10.46097 842.9339 4280165410
-21.843424 -10.53274 842.92987 4279837727
-21.399855 -10.462839 842.9303 4279706142
-20.897137 -10.533237 842.90985 4279706141
-20.453611 -10.460093 842.89557 4279902494
-19.949989 -10.529672 842.87219 4279836700
-19.507229 -10.458185 842.85107 4279836700
-19.003075 -10.533772 842.82648 4279771163
-18.560432 -10.461793 842.79767 4279902237
-18.056196 -10.528605 842.76471 4279968541
-17.613876 -10.457327 842.72858 4279968797
-17.109276 -10.52882 842.69019 4280100383
-16.667473 -10.45756 842.64423 4280231714
-16.162476 -10.531072 842.61499 4280363300
-15.721198 -10.458994 842.578 4280429349
-15.216163 -10.52869 842.56335 4280364070
-14.775712 -10.456168 842.55292 4280560934
-14.270388 -10.529066 842.54901 4280561190
-13.831169 -10.45892 842.56244 4280495397
-13.325249 -10.528221 842.57355 4280626726
-12.886433 -10.456816 842.58789 4280626727
-12.380467 -10.530623 842.60272 4280364582
-11.942174 -10.459289 842.62958 4280364325
-11.435621 -10.527648 842.6427 4280364581
-10.997791 -10.455905 842.67236 4280495142
-10.490658 -10.529481 842.67798 4280495142
-10.053141 -10.459522 842.70593 4280494886
-9.5456095 -10.532311 842.71667 4280298277
-9.1085148 -10.459774 842.73834 4280494885
-8.6008043 -10.527948 842.73718 4280625957
-8.1635637 -10.457336 842.76007 4280560677
-7.6553636 -10.53053 842.76898 4280298532
-7.2190037 -10.460608 842.79846 4280363813
-6.710506 -10.533633 842.81885 4280298020
-6.2745972 -10.463378 842.84747 4280232485
-5.7656684 -10.534925 842.88214 4280298021
-5.3298016 -10.46016 842.92706 4280560680
-4.8204288 -10.531075 842.9632 4280560682
-4.3852487 -10.462341 843.0224 4280888364
-3.8756576 -10.537887 843.07599 4280495147
-3.4404223 -10.465426 843.14227 4280429352
-2.9304724 -10.534621 843.20782 4280232485
-2.4952743 -10.465967 843.27411 4280100644
-1.9850453 -10.540822 843.34723 4280100899
-1.5501069 -10.469723 843.43365 4280363300
-1.0390359 -10.541603 843.51978 4280231970
-0.60178936 -10.469548 843.63538 4279968798
-0.092580177 -10.543261 843.76379 4279705625
0.34709588 -10.470229 843.92108 4279573783
0.85466892 -10.542469 844.09131 4279573524
1.2963728 -10.472466 844.27386 4279507476
1.8019446 -10.548665 844.4447 4279573012
2.2440302 -10.478688 844.62146 4279639061
2.7500238 -10.557603 844.76416 4279705366
3.1894639 -10.488501 844.909 4279639574
3.6985254 -10.561386 845.01624 4279771160
4.1348872 -10.487877 845.11951 4279903003
4.6467919 -10.560098 845.19318 4279837980
5.080256 -10.491528 845.26837 4279771933
5.5956469 -10.564939 845.3139 4279903261
6.0284443 -10.493176 845.37189 4279903263
6.5448074 -10.564217 845.40564 4279969311
6.9771919 -10.491847 845.45819 4279903519
7.4935718 -10.565595 845.48126 4279969567
7.925818 -10.493535 845.53101 4280100383
8.4423914 -10.563498 845.56165 4280035102
8.8749599 -10.496343 845.64587 4279969053
9.3921747 -10.573337 845.70935 4280035101
9.8259716 -10.498636 845.89069 4280034590
10.345534 -10.571137 846.09821 4280034844
10.78016 -10.505479 846.35669 4280231197
-31.795248 -10.083841 843.36188 4279126824
-31.293304 -10.103418 843.16785 4281414440
-30.832327 -10.051712 842.97272 4281152815
-30.334396 -10.088724 842.82275 4281349936
-29.876577 -10.052865 842.70667 4281415472
-29.381569 -10.092903 842.62427 4281349935
-28.926025 -10.054549 842.5697 4281481263
-28.433691 -10.092319 842.54602 4281415473
-27.979624 -10.055477 842.54999 4281415217
-27.489248 -10.093648 842.57324 4281415473
-27.03544 -10.056771 842.59583 4281284398
-26.545458 -10.095199 842.63104 4281153583
-26.09161 -10.05479 842.65741 4281284913
-25.602058 -10.095808 842.69012 4281088047
-25.14756 -10.060329 842.70996 4281087532
-24.657625 -10.095436 842.72577 4280955692
-24.20249 -10.056018 842.74536 4280889901
-23.709618 -10.096174 842.75342 4280889645
-23.257708 -10.060508 842.77283 4280954924
-22.761431 -10.095398 842.77417 4280823596
-22.312311 -10.058112 842.78302 4280692266
-21.81348 -10.093784 842.78125 4280429607
-21.366392 -10.058203 842.77911 4280298278
-20.867603 -10.093072 842.76392 4280166692
-20.420036 -10.056348 842.75085 4280231972
-19.92178 -10.091373 842.72961 4280297251
-19.473351 -10.056327 842.71082 4280363042
-18.975613 -10.092016 842.68854 4280231457
-18.526424 -10.057573 842.6618 4280231716
-18.029083 -10.092429 842.63269 4280428836
-17.579887 -10.054757 842.59619 4280494884
-17.085382 -10.090018 842.56183 4280560934
-16.633072 -10.055649 842.51605 4280824107
-16.142298 -10.093478 842.48877 4280955949
-15.686505 -10.054488 842.44861 4281087535
-15.199391 -10.091918 842.43231 4281022255
-14.740662 -10.055312 842.41742 4281153327
-14.254313 -10.094669 842.41101 4281284655
-13.795733 -10.054595 842.42059 4281350190
-13.309877 -10.090357 842.42975 4281415729
-12.850783 -10.053266 842.44061 4281219377
-12.365322 -10.093184 842.4566 4281022767
-11.906114 -10.057217 842.48071 4280956974
-11.420956 -10.094046 842.49615 4280825389
-10.961741 -10.052091 842.52423 4280890669
-10.476545 -10.089894 842.53009 4281087278
-10.01717 -10.055455 842.55872 4281021741
-9.5320902 -10.096618 842.57172 4280955693
-9.0721979 -10.05909 842.59375 4281152815
-8.5875645 -10.093328 842.59607 4281284143
-8.127389 -10.05308 842.6189 4281284397
-7.6425748 -10.091714 842.6322 4281021996
-7.1825275 -10.056788 842.65991 4281087791
-6.6981668 -10.098994 842.68298 4280956462
-6.2372746 -10.06036 842.70972 4281087537
-5.753861 -10.097075 842.74622 4281021744
-5.2925277 -10.058146 842.79004 4281218609
-4.8090301 -10.094341 842.82758 4281218610
-4.3475552 -10.060307 842.8844 4281349684
-3.8642259 -10.102269 842.9389 4281415733
-3.4025214 -10.061771 843.00037 4281284147
-2.9196737 -10.098665 843.06689 4280955695
-2.4574213 -10.063977 843.12811 4280693037
-1.9749119 -10.10372 843.20435 4280824364
-1.5120147 -10.064526 843.28961 4281086765
-1.0266389 -10.103035 843.37994 4280889900
-0.56612056 -10.067472 843.49774 4280560679
-0.075007893 -10.104993 843.62793 4280034590
0.38081798 -10.068329 843.78577 4279836954
0.87648773 -10.102464 843.95386 4279836185
1.3277422 -10.070457 844.13251 4279704856
1.8234642 -10.106515 844.30017 4279836185
2.2754228 -10.077102 844.47174 4279902233
2.7686188 -10.116855 844.61261 4280033818
3.2231693 -10.084885 844.75403 4280165660
3.7141995 -10.120205 844.85828 4280297248
4.1714444 -10.083265 844.95972 4280429347
4.6624503 -10.121641 845.02789 4280364069
5.120091 -10.087648 845.10114 4280429863
5.6079373 -10.125058 845.14215 4280429609
6.0687804 -10.089119 845.19788 4280429866
6.5560737 -10.124681 845.22894 4280561195
7.0174489 -10.086931 845.2793 4280626985
7.5044098 -10.125772 845.30402 4280627241
7.9660091 -10.090946 845.35333 4280692775
8.4529133 -10.126495 845.38434 4280823591
8.9154768 -10.090155 845.46069 4280758309
9.4022989 -10.127364 845.51691 4280757799
9.8665771 -10.092993 845.69373 4280758055
10.352319 -10.134894 845.88409 4280692263
10.821846 -10.103183 846.14105 4280627238
-31.819017 -9.5428972 843.29211 4280108596
-31.310015 -9.5925169 843.1037 4282072611
-30.856205 -9.5027409 842.91058 4281350964
-30.351154 -9.5743036 842.75293 4281482804
-29.900108 -9.5084801 842.63666 4281614133
-29.397741 -9.5812864 842.54614 4281680179
-28.949715 -9.5106239 842.48773 4281220659
-28.448763 -9.5807848 842.45319 4281811509
-28.003256 -9.509119 842.45331 4281614135
-27.503965 -9.581152 842.4707 4281680182
-27.059391 -9.5121117 842.49188 4281352246
-26.559706 -9.5822735 842.51984 4281549623
-26.11578 -9.5093403 842.54443 4281549369
-25.615856 -9.583272 842.57501 4281287222
-25.172203 -9.5130672 842.59418 4281155381
-24.671379 -9.5831671 842.6073 4281220662
-24.227608 -9.5153332 842.6236 4281220151
-23.726439 -9.5849895 842.62817 4281089334
-23.283129 -9.5110598 842.64655 4280957492
-22.781057 -9.5834827 842.64429 4281088306
-22.338041 -9.5134325 842.65326 4280825136
-21.83581 -9.5852613 842.651 4280759344
-21.392637 -9.5147524 842.65106 4280758830
-20.890024 -9.5826616 842.63818 4280430636
-20.447245 -9.5094109 842.62939 4280561194
-19.943684 -9.5819597 842.60944 4280560679
-19.501478 -9.5103102 842.59448 4280495143
-18.997299 -9.5825987 842.57391 4280757545
-18.555244 -9.5123425 842.55273 4280823082
-18.051155 -9.5811462 842.52502 4280626729
-17.609085 -9.5105171 842.49371 4280626986
-17.104475 -9.5813656 842.45886 4281021485
-16.662926 -9.5103941 842.41699 4281219122
-16.158018 -9.5823002 842.38666 4281351478
-15.716944 -9.5101089 842.34558 4281483577
-15.212019 -9.5809259 842.32629 4281418553
-14.771387 -9.508935 842.30817 4281614904
-14.266297 -9.5795555 842.29889 4282008378
-13.826994 -9.5107327 842.30829 4281942330
-13.321424 -9.5799685 842.31714 4282139195
-12.882764 -9.5063562 842.33057 4281877564
-12.376842 -9.580019 842.34613 4281484603
-11.938651 -9.5117302 842.36859 4281155896
-11.432333 -9.582715 842.38489 4281089844
-10.994421 -9.5091696 842.41101 4280958260
-10.487532 -9.5792837 842.41498 4281286197
-10.050093 -9.510148 842.44196 4281220406
-9.5429201 -9.5825281 842.45294 4281286199
-9.1058779 -9.512023 842.47833 4281745209
-8.5982981 -9.5819139 842.48102 4281680184
-8.1613884 -9.5098505 842.50586 4281417268
-7.6534371 -9.5806885 842.51923 4281483060
-7.2169313 -9.5118589 842.54608 4281548855
-6.7086439 -9.5849495 842.56879 4281548857
-6.2725563 -9.5149574 842.59674 4281614395
-5.7641664 -9.5863028 842.63055 4281351737
-5.3281898 -9.5125799 842.67767 4281483065
-4.8192372 -9.5828629 842.71552 4281614394
-4.3841844 -9.5147781 842.77631 4281614395
-3.8744531 -9.5883808 842.83221 4282007870
-3.4396458 -9.5162783 842.89276 4281876540
-2.9295881 -9.5868149 842.95538 4281744955
-2.4946587 -9.5182896 843.01245 4281548088
-1.9843515 -9.5910425 843.08112 4281613624
-1.5498503 -9.5198298 843.16516 4281416756
-1.0388248 -9.5921974 843.25092 4281284403
-0.6045267 -9.5211487 843.36731 4281283373
-0.092885479 -9.5930929 843.49902 4280494629
0.3416245 -9.5228491 843.65875 4280034334
0.85362387 -9.5938835 843.8316 4280033563
1.2880338 -9.5238829 844.01068 4279968028
1.801097 -9.5968685 844.17902 4280034076
2.2350597 -9.5292273 844.34888 4280165662
2.7490695 -9.6083584 844.49103 4280494113
3.1827712 -9.5398045 844.62726 4280625955
3.6971889 -9.6080027 844.72955 4280757542
4.1306067 -9.5350609 844.82635 4280824363
4.6450472 -9.6100874 844.89429 4280694064
5.0783525 -9.5437365 844.96759 4281219124
5.5933242 -9.6132088 845.00897 4281022520
6.0261135 -9.5385132 845.06482 4281547321
6.5419531 -9.6109209 845.09698 4281154106
6.9743328 -9.5403643 845.14691 4281417017
7.4902515 -9.6139317 845.17371 4281286200
7.9226551 -9.5426531 845.22052 4281613878
8.4389982 -9.6131697 845.2514 4281744949
8.8713923 -9.5439177 845.32184 4281613364
9.3884373 -9.6167774 845.37714 4281482292
9.8217821 -9.5451145 845.54755 4281613366
10.340755 -9.6201773 845.7251 4281351477
10.774778 -9.5547762 845.97601 4281613621
-31.794094 -9.145647 843.26318 4280903715
-31.289871 -9.1559362 843.0777 4282598194
-30.828707 -9.0982361 842.87238 4281747520
-30.330547 -9.1382179 842.70966 4282140734
-29.871861 -9.104598 842.58075 4282338108
-29.376764 -9.1459064 842.48535 4282403393
-28.920618 -9.110054 842.41864 4282338112
-28.428108 -9.1469307 842.38129 4282403909
-27.973618 -9.1069212 842.3786 4282338627
-27.483387 -9.1455908 842.3963 4282535750
-27.029295 -9.1089973 842.41431 4282667334
-26.53952 -9.1466799 842.44183 4282601545
-26.085569 -9.1079998 842.46411 4282208072
-25.596073 -9.1474905 842.49591 4282010948
-25.141529 -9.1093712 842.5108 4282273858
-24.651836 -9.1493673 842.52643 4282273092
-24.196594 -9.1113806 842.53748 4281944383
-23.706907 -9.1489258 842.5448 4281681728
-23.251753 -9.1103506 842.55859 4281484606
-22.761957 -9.148241 842.55853 4281352253
-22.306429 -9.1105957 842.56134 4281220663
-21.817177 -9.1499004 842.5639 4281220407
-21.360685 -9.1103544 842.55811 4280957235
-20.871538 -9.1480827 842.55029 4280891185
-20.414627 -9.1087208 842.539 4280890671
-19.926062 -9.1468382 842.52203 4280955694
-19.468555 -9.1090097 842.50702 4281020972
-18.980305 -9.1460409 842.48871 4281086511
-18.522295 -9.1072626 842.46698 4280824109
-18.034344 -9.1464958 842.44318 4280889901
-17.576056 -9.1097479 842.41187 4281021998
-17.087961 -9.1470585 842.37933 4281481782
-16.629522 -9.1071577 842.33881 4281614138
-16.142059 -9.1460409 842.3089 4281878336
-15.683202 -9.108036 842.26843 4282207556
-15.196251 -9.146224 842.24713 4282010689
-14.737339 -9.1072884 842.22687 4282469954
-14.251072 -9.1449461 842.21625 4282732103
-13.792577 -9.1055861 842.22272 4282665540
-13.306761 -9.1427288 842.23016 4282928456
-12.847732 -9.1044064 842.24054 4282535750
-12.362505 -9.1448488 842.25641 4282010690
-11.903164 -9.1095295 842.2757 4281748289
-11.418266 -9.1482038 842.29187 4281550399
-10.958938 -9.1079922 842.31555 4281550907
-10.473908 -9.145072 842.31873 4281747261
-10.014622 -9.1074791 842.34515 4282010430
-9.5296831 -9.1482706 842.35913 4282272578
-9.0699415 -9.1090775 842.38403 4282272577
-8.5854626 -9.1434755 842.39276 4282272063
-8.1251974 -9.107645 842.41687 4282206523
-7.6411753 -9.1477442 842.4339 4282206270
-7.1808205 -9.108346 842.46075 4282469182
-6.6968217 -9.1490736 842.48444 4282337859
-6.2361403 -9.1132708 842.5105 4282272323
-5.7525806 -9.1506224 842.54578 4282009406
-5.2914138 -9.1106138 842.59204 4281944379
-4.808084 -9.148736 842.63336 4282009149
-4.3467927 -9.1113577 842.69189 4282140737
-3.8636222 -9.1505489 842.74841 4282271555
-3.4018912 -9.1135397 842.80457 4282205503
-2.9193742 -9.1535902 842.86584 4282139969
-2.4567678 -9.1172857 842.91742 4282139710
-1.9744056 -9.1545782 842.98492 4282008638
-1.5116338 -9.1158724 843.0647 4281942329
-1.0293788 -9.158123 843.1524 4281416754
-0.56623566 -9.1200476 843.26868 4281152811
-0.080533676 -9.1561823 843.40131 4280757797
0.38027325 -9.1181669 843.56 4280231710
0.8681466 -9.1545887 843.73126 4280033819
1.3269398 -9.1192894 843.90906 4279772189
1.81494 -9.1606627 844.07617 4280034588
2.2744038 -9.1294193 844.24591 4280363296
2.7596667 -9.1701097 844.39062 4280757540
3.2223582 -9.1324987 844.5282 4281020712
3.7044604 -9.1714544 844.63531 4281218605
4.1702561 -9.1355944 844.73254 4281416499
4.6522584 -9.176096 844.79956 4281285940
5.1185708 -9.1358767 844.87134 4281745979
5.6003046 -9.1749716 844.90887 4281877565
6.0668278 -9.1373453 844.96173 4281877822
6.5480523 -9.1745138 844.98932 4281943616
7.0153685 -9.135561 845.03442 4282141251
7.4962397 -9.1783447 845.06165 4282207041
7.9636569 -9.1406527 845.10638 4282797633
8.4444323 -9.175478 845.13861 4282863171
8.9125862 -9.1375093 845.2005 4282862399
9.3931904 -9.1792564 845.24554 4282665793
9.8630199 -9.1434116 845.40918 4282534723
10.345194 -9.1832457 845.57135 4282337856
10.816828 -9.1500807 845.81775 4282403908
-31.819662 -8.6005564 843.23999 4286217795
-31.310627 -8.6473045 843.05804 4284374059
-30.854038 -8.5551672 842.8562 4283390031
-30.348721 -8.6264334 842.68591 4282931276
-29.897213 -8.5615101 842.55756 4282865995
-29.39436 -8.6356335 842.45599 4283128656
-28.946064 -8.5652103 842.38629 4283522647
-28.44474 -8.6350355 842.33954 4282998103
-27.999168 -8.5649509 842.33453 4283326296
-27.49983 -8.6352987 842.34753 4283654491
-27.05512 -8.563529 842.36816 4284310619
-26.555643 -8.6340466 842.38855 4283981917
-26.111567 -8.563448 842.41174 4283719771
-25.611834 -8.6358385 842.44165 4282867285
-25.168034 -8.5659494 842.45654 4283130196
-24.667326 -8.6368637 842.4696 4283458646
