# .PCD v0.7 - Point Cloud Data file format
VERSION 0.7
FIELDS x y z rgb
SIZE 4 4 4 4
TYPE F F F U
COUNT 1 1 1 1
WIDTH 1165
HEIGHT 1
VIEWPOINT 0 0 0 1 0 0 0
POINTS 1165
DATA ascii
19.481281 62.058002 814.32361 4281476106
19.981636 61.994579 814.24731 4280360454
20.39115 62.016716 814.21082 4280228102
20.89213 61.97197 814.14484 4279900421
21.301018 62.017315 814.10535 4279899910
21.801941 61.97892 814.03265 4279703557
22.211115 62.024254 814.00891 4279834374
22.712704 61.973614 813.95709 4279900423
-10.572499 62.171474 810.44128 4294950266
-10.105598 62.112785 810.42401 4294958733
-9.6633043 62.173626 810.44427 4294958999
-9.1978903 62.118092 810.51471 4294952317
-8.7565727 62.183491 810.62683 4293039183
-8.2862062 62.135189 810.77087 4289752884
-7.8449092 62.209015 810.9646 4287192879
-7.3758321 62.166416 811.15082 4285745437
-6.9338169 62.240047 811.3642 4284234519
-6.4658337 62.197392 811.57227 4283706896
-6.022922 62.274925 811.83179 4282918924
-5.5591078 62.237568 812.09406 4282392842
-5.1157837 62.319996 812.42096 4281867528
-4.6522851 62.286583 812.74274 4281538822
-4.208322 62.375011 813.15161 4281341701
-3.7450452 62.352962 813.6178 4281341190
-3.3008246 62.471596 814.38153 4281406984
-2.836741 62.459576 814.91699 4281472779
-2.3917727 62.583084 815.74127 4281210379
-1.9268876 62.564587 816.30286 4280357128
-1.479218 62.665001 816.89032 4279635462
-1.0125113 62.614944 817.32391 4279634948
-0.56363285 62.686562 817.65143 4279439622
-0.097155519 62.670555 817.90527 4280358665
0.35170969 62.750153 818.00494 4282329616
0.81957245 62.690033 817.99884 4283645466
1.2681794 62.731449 817.83148 4283709970
1.7353268 62.650871 817.58887 4282134541
2.1823008 62.696861 817.31372 4281477636
2.6496599 62.622948 817.0296 4282133510
3.0965657 62.656048 816.77747 4282068992
3.562835 62.576248 816.55084 4281608964
4.0096426 62.620674 816.38684 4281280768
4.4755564 62.55109 816.25397 4281476357
4.9243603 62.60384 816.23254 4281148928
5.3908067 62.545628 816.2572 4280885506
5.8424392 62.613678 816.37347 4280623360
6.3099818 62.562401 816.53149 4280293890
6.7621002 62.633568 816.69232 4279834626
7.2271967 62.598961 816.81549 4279833606
7.6782422 62.66655 816.86884 4279768070
8.1420116 62.599136 816.82135 4279899144
8.589922 62.638649 816.6402 4279899144
9.0524874 62.537498 816.39459 4279636229
9.5000505 62.570927 815.97906 4279439362
9.9593267 62.510651 815.61945 4279767555
10.407626 62.54781 815.28613 4280161542
10.866227 62.462078 815.03815 4280227591
11.316616 62.499432 814.88232 4280096517
11.777087 62.425213 814.81049 4279965444
12.229288 62.476551 814.78394 4280031236
12.690612 62.42564 814.81 4280359428
13.143609 62.500816 814.8316 4280623109
13.603903 62.45583 814.81897 4281411593
14.05581 62.510105 814.77875 4282265611
14.515272 62.442078 814.72968 4282331657
14.967499 62.48867 814.66815 4282528519
15.426291 62.423615 814.60339 4282527496
15.878615 62.477245 814.5498 4282461960
16.337591 62.416561 814.51624 4282658826
16.790728 62.469795 814.47882 4282659339
17.249079 62.408546 814.44269 4282396167
17.702221 62.465923 814.39685 4282134277
18.159504 62.409328 814.33105 4282396167
18.611948 62.468449 814.25409 4282461703
19.068386 62.408249 814.17346 4282329866
19.521303 62.44944 814.09314 4281870599
19.977118 62.369415 814.00739 4281278981
20.430721 62.41148 813.95154 4280951300
20.886875 62.350548 813.888 4280622599
21.340542 62.415184 813.84174 4280294915
21.796253 62.356491 813.77936 4280228612
22.248312 62.413418 813.66962 4280295171
22.703442 62.345104 813.5965 4280425990
23.157049 62.396648 813.51794 4280165128
-10.605417 62.669689 810.44373 4294948985
-10.118954 62.627815 810.42712 4294954128
-9.698885 62.672558 810.44104 4294955394
-9.2102652 62.631405 810.5108 4294946412
-8.7860479 62.681435 810.62195 4293167949
-8.2975311 62.647709 810.76294 4289425204
-7.8748922 62.70451 810.95605 4287650092
-7.3863912 62.678982 811.13818 4286007839
-6.9641724 62.73531 811.35242 4284693271
-6.4758229 62.708229 811.55603 4283772943
-6.0579619 62.769379 811.81396 4282853132
-5.568944 62.750477 812.07043 4282458634
-5.1511273 62.816936 812.38977 4281933065
-4.6617794 62.797913 812.70679 4281539077
-4.2439423 62.866814 813.10992 4281341701
-3.754102 62.864166 813.59009 4281407238
-3.3369865 62.97028 814.37427 4281538312
-2.8457601 62.976898 814.90771 4281604107
-2.4278524 63.083271 815.66565 4281079562
-1.9351798 63.077972 816.20154 4280292105
-1.5167632 63.147156 816.77454 4279963400
-1.0213339 63.115166 817.16046 4279898373
-0.60160512 63.164204 817.37506 4279964425
-0.10651255 63.150047 817.53162 4280623111
0.31453523 63.21627 817.55151 4283316501
0.80837047 63.180237 817.50128 4285352740
1.2302552 63.197723 817.32001 4284566038
1.7225523 63.12822 817.09149 4282793226
2.1447842 63.15274 816.81476 4282988300
2.636786 63.094711 816.52594 4282794253
3.0585699 63.116562 816.29877 4283451152
3.5506649 63.056465 816.07788 4282665746
3.9723299 63.087994 815.95038 4283516178
4.4647017 63.032215 815.82043 4282926866
4.8851218 63.073284 815.83276 4283712787
5.3805294 63.033012 815.86975 4282336788
5.801343 63.078598 816.02893 4282334736
6.2999759 63.048637 816.18567 4281020940
6.7196875 63.110237 816.39191 4280951048
7.2189798 63.092342 816.50244 4280163332
7.636981 63.148285 816.58362 4280162569
8.1344776 63.094078 816.50598 4280097291
8.5494986 63.114826 816.35144 4280097291
9.0449944 63.034199 816.04425 4279834375
9.4561338 63.042686 815.66364 4279898885
9.9509907 62.994274 815.30243 4279768324
10.362056 63.025188 815.00458 4280030982
10.858184 62.958416 814.76593 4279965702
11.270906 62.976658 814.62488 4280162310
11.768825 62.92025 814.55121 4279835653
12.182564 62.95121 814.52429 4280229126
12.682248 62.918926 814.54895 4280164358
13.096263 62.976208 814.57495 4280820231
13.595796 62.948296 814.57068 4281215496
14.008817 62.993965 814.54681 4282134539
14.507872 62.940559 814.51154 4282397196
14.920379 62.972958 814.46509 4282396680
15.419399 62.924229 814.40619 4282200071
15.830801 62.960796 814.35577 4282658825
16.330873 62.916115 814.31458 4282790925
16.741911 62.952995 814.27094 4283774735
17.242313 62.907146 814.23627 4283445773
17.653107 62.948177 814.20038 4282986505
18.153353 62.912529 814.14191 4282790409
18.562786 62.958546 814.07318 4282724105
19.061342 62.903114 813.99738 4282658312
19.471569 62.927013 813.91718 4282789900
19.968538 62.867424 813.81464 4281872910
20.37973 62.892078 813.75055 4281544204
20.87668 62.849777 813.67407 4280364555
21.288967 62.896404 813.63586 4281018636
21.786318 62.857723 813.57153 4280102157
22.199003 62.897694 813.56427 4281019406
22.697378 62.85413 813.52722 4280233998
-10.572377 63.080723 810.44012 4294948468
-10.105915 63.022453 810.42365 4294957193
-9.6632633 63.08223 810.42999 4294952831
-9.1979961 63.02565 810.49689 4294946158
-8.7564163 63.090668 810.5921 4293430091
-8.2861023 63.042549 810.73181 4290276659
-7.8445759 63.115604 810.90759 4287519016
-7.375515 63.072548 811.09607 4286269729
-6.933434 63.145378 811.29913 4284824600
-6.4654279 63.102867 811.5127 4283838224
-6.0224285 63.18071 811.76318 4282918668
-5.558733 63.144577 812.02496 4282392841
-5.1152697 63.225559 812.33063 4281802250
-4.6518764 63.189503 812.64465 4281539078
-4.2078142 63.276623 813.03302 4281539078
-3.7445228 63.257561 813.50659 4281604104
-3.300375 63.381256 814.27069 4281669897
-2.8362627 63.372463 814.79822 4281604620
-2.3904827 63.484024 815.47583 4281210893
-1.925756 63.450985 815.95972 4280423433
-1.4786769 63.537262 816.56445 4280029961
-1.0124159 63.490108 816.87982 4280357384
-0.56443417 63.565403 817.08716 4280163081
-0.09787751 63.53159 817.20319 4281805069
0.34837466 63.611748 817.21576 4284958490
0.81615508 63.551891 817.13855 4286472746
1.2624228 63.591816 816.97137 4286405404
1.7296475 63.503399 816.72833 4284567057
2.1754835 63.537785 816.45306 4284175375
2.6430824 63.461895 816.17175 4285948952
3.0891402 63.504612 815.9483 4286738719
3.5555625 63.426926 815.73694 4286346016
4.0011249 63.474792 815.6004 4286279967
4.4671574 63.406422 815.47589 4286936353
4.9148693 63.460239 815.4621 4287133470
5.3816242 63.403507 815.51178 4286937896
5.8327737 63.476067 815.65289 4286935334
6.3020878 63.423672 815.83752 4284569111
6.7544518 63.502678 816.05035 4281677061
7.2218442 63.468941 816.203 4280754182
7.6739044 63.536171 816.28436 4280164363
8.1373463 63.470459 816.22815 4280623374
8.5877361 63.511387 816.08038 4280951311
9.0472813 63.414055 815.78772 4280491275
9.4948874 63.440285 815.42487 4280162820
9.9527941 63.375954 815.07623 4280556037
10.400035 63.424736 814.78094 4281081604
10.859895 63.340565 814.54663 4280753413
11.307725 63.373226 814.40125 4280688642
11.770042 63.302773 814.32837 4280885765
12.218492 63.358456 814.30359 4281280772
12.683125 63.300262 814.33466 4281346053
13.133702 63.367916 814.36835 4281346821
13.596679 63.324986 814.3797 4281740809
14.047656 63.391624 814.36993 4282594058
14.508656 63.331627 814.349 4283053324
14.960855 63.378384 814.30682 4282725126
15.419747 63.31184 814.25165 4282659592
15.871783 63.363194 814.19409 4282922505
16.330395 63.300556 814.14832 4283644171
16.78273 63.355125 814.09216 4285152529
17.241282 63.29467 814.06665 4285152789
17.69429 63.351696 814.03137 4284495113
18.152035 63.298077 813.98853 4283511815
18.60297 63.357731 813.91742 4283183624
19.059324 63.291496 813.85065 4283511562
19.510529 63.326996 813.75812 4284301065
19.965771 63.250259 813.65076 4285024016
20.417175 63.297951 813.56573 4284697608
20.873201 63.235764 813.49152 4282990601
21.326466 63.299282 813.44153 4282533121
21.78237 63.23637 813.3833 4283187980
22.235083 63.293266 813.32196 4283321864
22.691216 63.233749 813.27692 4283451918
23.1528 63.286678 813.23651 4283781130
-10.603508 63.576977 810.43719 4294950510
-10.118597 63.533909 810.41498 4294957199
-9.6984415 63.580059 810.4187 4294952822
-9.2097149 63.539711 810.48419 4294942048
-8.7856503 63.586716 810.58392 4293560395
-8.297101 63.555374 810.72107 4291589179
-7.8744297 63.613602 810.90338 4288108841
-7.3860164 63.586128 811.08667 4286335773
-6.9637227 63.64053 811.2934 4284693528
-6.4755254 63.614876 811.50183 4283773200
-6.057507 63.675274 811.75214 4282852876
-5.5686374 63.656792 812.01074 4282392586
-5.1506953 63.72073 812.31281 4281998346
-4.6614294 63.70256 812.63092 4281539079
-4.2436023 63.772007 813.01947 4281538567
-3.7538726 63.773228 813.51056 4281735175
-3.3364632 63.882805 814.27789 4281735433
-2.8453991 63.8909 814.80664 4281800716
-2.4273028 63.977528 815.43127 4281276685
-1.9348373 63.955997 815.90204 4280489739
-1.5164565 64.019867 816.41571 4280358413
-1.0220981 63.989422 816.6814 4280359947
-0.60149026 64.044128 816.82806 4280951569
-0.10909771 64.030258 816.90137 4282268435
0.31400087 64.087357 816.87268 4285226018
0.80305541 64.044098 816.79712 4287066161
1.2291172 64.066528 816.63892 4286475553
1.7162373 63.995033 816.42279 4285686801
2.1416068 64.013458 816.16986 4286606618
2.6300008 63.956715 815.9032 4289760559
3.053623 63.983105 815.70264 4289764656
3.5432625 63.925335 815.49872 4290027060
3.9653733 63.957722 815.38586 4289962289
4.456583 63.903439 815.25867 4291339825
4.8772554 63.947796 815.26074 4290358575
5.3714452 63.912247 815.29297 4291735618
5.7942843 63.963852 815.44409 4291406397
6.2922478 63.928284 815.6004 4289102901
6.7135544 63.984165 815.83466 4283584018
7.2116189 63.961205 815.96033 4281085440
7.6320181 64.013023 816.06525 4280624912
8.1270733 63.965008 815.98688 4280627223
8.5439911 63.998596 815.86359 4280888855
9.0364494 63.916073 815.54102 4280364050
9.4505777 63.921532 815.20343 4280951307
9.9422998 63.871105 814.85034 4280755978
10.356529 63.902859 814.57288 4281412879
10.849323 63.837749 814.34491 4280758798
11.263989 63.856678 814.21021 4281610512
11.759132 63.804317 814.13257 4280696082
12.175179 63.839909 814.11035 4282400274
12.672407 63.803486 814.14203 4282074393
13.08901 63.849693 814.18219 4282334226
13.587597 63.820942 814.20081 4281547020
14.00297 63.874386 814.20886 4282857228
14.50161 63.834339 814.20007 4283709709
14.91494 63.868225 814.17145 4283317259
15.413943 63.814964 814.12048 4283317772
15.825386 63.849285 814.06769 4283776269
16.324987 63.806602 814.01569 4283973387
16.735518 63.844563 813.95203 4284563466
17.235933 63.799812 813.92889 4285218058
17.646702 63.838718 813.8999 4284300810
18.147602 63.803738 813.87006 4283317256
18.557096 63.846939 813.81091 4283381001
19.054495 63.790485 813.75806 4283709440
19.464575 63.811272 813.67145 4286861842
19.959204 63.76046 813.56274 4288836650
20.370405 63.790253 813.4696 4288579115
20.864275 63.745819 813.3866 4285562653
21.277594 63.788338 813.33093 4287200289
21.773315 63.746155 813.26807 4287660319
22.1861 63.785381 813.21899 4289563179
22.682751 63.742249 813.18109 4288187438
23.102804 63.77795 813.1524 4287794730
-10.572243 63.989067 810.42517 4294946411
-10.105538 63.926998 810.40009 4294950766
-9.6631384 63.98772 810.40253 4294948202
-9.1977625 63.93211 810.46326 4294942812
-8.7557487 63.997406 810.5564 4294018886
-8.2858829 63.949524 810.69128 4291720003
-7.8438931 64.024208 810.86285 4288107817
-7.3753576 63.980183 811.04999 4285808919
-6.93258 64.052422 811.24933 4284365591
-6.4650731 64.009697 811.46497 4283706897
-6.0220027 64.087463 811.71136 4282852876
-5.5584321 64.051231 811.97516 4282523402
-5.114944 64.132095 812.27264 4281867017
-4.651547 64.096825 812.58984 4281669895
-4.2075505 64.18483 812.97119 4281669896
-3.7442911 64.167358 813.44025 4281866505
-3.29985 64.29113 814.15692 4281997577
-2.8358731 64.283142 814.70593 4281866765
-2.3902321 64.385254 815.36621 4281276684
-1.9255034 64.339729 815.77307 4280817934
-1.4793756 64.422325 816.28589 4280623121
-1.0132427 64.372375 816.48749 4281345298
-0.56701785 64.452469 816.63263 4281743129
-0.10050965 64.415443 816.66766 4284108835
0.34323546 64.488205 816.63922 4286935594
0.81116897 64.421333 816.54938 4287463721
1.2565691 64.460327 816.41974 4287332131
1.7239549 64.374481 816.21423 4286935833
2.1687582 64.415855 815.9845 4287529500
2.6370566 64.342796 815.73846 4291209013
3.0821896 64.390137 815.54926 4292523323
3.5489564 64.313507 815.36273 4291804474
3.9934528 64.362282 815.24927 4292000831
4.4597797 64.291359 815.13025 4292855613
4.9065962 64.351013 815.11273 4293840451
5.3733511 64.297806 815.14471 4293645639
5.8239465 64.373619 815.27301 4294427213
6.2949009 64.323051 815.4281 4291537474
6.7459874 64.393341 815.6452 4286147613
7.2150936 64.344444 815.7821 4282136070
7.6658854 64.408798 815.88409 4280432910
8.1309385 64.344604 815.81799 4282399505
8.5795183 64.396637 815.69604 4283057427
9.0397892 64.302795 815.38727 4282201870
9.4867954 64.330513 815.04865 4281481219
9.9451199 64.261658 814.70874 4283186451
10.391659 64.307732 814.43323 4284371218
10.852064 64.219978 814.21179 4284109336
11.29871 64.259529 814.06995 4283718156
11.7616 64.194878 813.98688 4284768017
12.208246 64.253693 813.96594 4285557517
12.674124 64.191246 814.00079 4286082337
13.12529 64.253517 814.04938 4284898835
13.589336 64.206421 814.08099 4283319306
14.04168 64.279533 814.10358 4282400007
14.503174 64.226097 814.10718 4284039441
14.956746 64.273972 814.08191 4283974674
15.415614 64.204262 814.03668 4283711755
15.86767 64.257362 813.97955 4283842829
16.326063 64.198669 813.93011 4284498957
16.777853 64.255135 813.86035 4284892429
17.23666 64.19516 813.84753 4284958479
17.689734 64.249763 813.82037 4284434193
18.148178 64.193176 813.80579 4283449351
18.598099 64.247772 813.74701 4282662669
19.05468 64.180672 813.70367 4284956930
19.504057 64.22583 813.60999 4288705051
19.958847 64.158623 813.50433 4294689622
20.407701 64.206322 813.39996 4294957421
20.863552 64.137375 813.32379 4292598094
21.31646 64.198929 813.26062 4292727133
21.77247 64.137222 813.20593 4294038093
22.225161 64.194176 813.15765 4294956897
22.67758 64.126488 812.98773 4294965610
23.129311 64.17263 812.88483 4294960506
23.578823 64.098801 812.68341 4288714296
-10.601339 64.486267 810.40948 4294944618
-10.117388 64.439354 810.37732 4294945908
-9.6980801 64.482864 810.3855 4294946408
-9.2089262 64.444244 810.44452 4294943841
-8.7853498 64.493614 810.54938 4293363781
-8.2962742 64.462646 810.68427 4290800693
-7.8742414 64.521423 810.86743 4288369451
-7.385427 64.495239 811.04816 4285677851
-6.9635005 64.549461 811.25421 4284626456
-6.4752169 64.522743 811.46246 4283641875
-6.05723 64.582893 811.70953 4283180815
-5.5683112 64.563957 811.96814 4282654986
-5.1504884 64.626167 812.26324 4282063881
-4.6612039 64.610931 812.5838 4281735943
-4.2433615 64.68177 812.96478 4281800968
-3.7536054 64.682991 813.4411 4281997833
-3.3357294 64.786781 814.11938 4281932297
-2.8449407 64.79792 814.72858 4281932298
-2.427588 64.887138 815.47198 4281211148
-1.9359968 64.859787 815.86505 4280819469
-1.5173055 64.918938 816.24097 4281346588
-1.02473 64.888367 816.38708 4282204196
-0.60384679 64.941895 816.4743 4283846447
-0.11403432 64.917336 816.47009 4285623345
0.30942267 64.969666 816.41571 4288449847
0.79749179 64.920975 816.34277 4288911163
1.2241876 64.942886 816.23474 4288516652
1.7100306 64.878426 816.06653 4288384541
2.1363716 64.90815 815.87 4290155814
2.6236143 64.856186 815.64545 4293704250
3.0479126 64.885277 815.47668 4293840955
3.5365438 64.825142 815.29803 4293840701
3.959213 64.858627 815.20374 4293906236
4.4497795 64.805649 815.08551 4294561592
4.8706222 64.85025 815.07739 4294957629
5.364079 64.811745 815.0907 4294958153
5.7886252 64.870644 815.22113 4294957636
6.2848134 64.83857 815.34644 4294097223
6.7078934 64.888817 815.56915 4288315943
7.204 64.846786 815.68066 4282797824
7.6268673 64.897789 815.80151 4284304417
8.1198568 64.856003 815.72412 4285754676
8.5375271 64.891647 815.62274 4286479677
9.0285721 64.81337 815.30627 4285164840
9.4441462 64.826233 814.98334 4285487389
9.9344969 64.772026 814.63727 4286736663
10.349879 64.79612 814.36237 4288383279
10.841284 64.729637 814.13696 4288778543
11.256495 64.753693 813.99164 4291011381
11.750299 64.705635 813.89404 4292981052
12.167058 64.748032 813.87012 4293443383
12.663465 64.707451 813.90253 4293637188
13.082551 64.746643 813.95721 4291339061
13.58129 64.712387 813.99084 4287392280
13.998609 64.76738 814.0271 4284696334
14.497543 64.731041 814.03564 4284891914
14.912087 64.763802 814.01868 4284630032
15.41122 64.713127 813.97546 4284760590
15.82275 64.74913 813.92352 4284695564
16.322321 64.709702 813.875 4285548045
16.732676 64.749527 813.80505 4284826893
17.233315 64.707329 813.79712 4285089295
17.644075 64.74366 813.77679 4284697104
18.145704 64.70282 813.77625 4284237067
18.555515 64.736748 813.73004 4283579659
19.051876 64.688896 813.69922 4285811712
19.463259 64.723076 813.62073 4290086940
19.95476 64.679588 813.52655 4294959470
20.368725 64.712616 813.43195 4294967162
20.857708 64.663795 813.35736 4294967158
21.275646 64.703529 813.29865 4294964570
21.766745 64.659042 813.23602 4294959697
22.184069 64.695992 813.18396 4294965330
22.672361 64.641594 813.00458 4294967167
23.087751 64.671921 812.90155 4294965349
23.574053 64.607719 812.67731 4293499974
-10.572011 64.89856 810.39258 4294945128
-10.104599 64.834114 810.35992 4294949488
-9.6630707 64.892464 810.37158 4294946406
-9.197032 64.836075 810.42682 4294945381
-8.7538757 64.90435 810.52802 4293823301
-8.2853336 64.856491 810.66272 4290013486
-7.8421211 64.932442 810.83881 4287452713
-7.3750491 64.889198 811.02179 4286334240
-6.9310465 64.962669 811.22125 4284955417
-6.4647794 64.918755 811.43335 4283772945
-6.0216875 64.995331 811.67639 4283115791
-5.558054 64.957588 811.93689 4282720778
-5.1145997 65.038834 812.23029 4282064393
-4.6511874 65.005722 812.54871 4281867016
-4.2072339 65.09507 812.91986 4281801225
-3.7439108 65.074371 813.3609 4281997833
-3.2992725 65.185303 813.93634 4281998089
-2.8354058 65.183884 814.59943 4281866763
-2.3905718 65.314323 815.60376 4280884492
-1.9269099 65.261711 815.89417 4281213462
-1.4818881 65.338181 816.2395 4281875498
-1.0158271 65.281906 816.31104 4284373304
-0.57171941 65.356392 816.38684 4285886283
-0.10526939 65.307007 816.3457 4288254028
0.33893949 65.373993 816.29596 4291669833
0.80571896 65.304077 816.2135 4291803462
1.2521476 65.349426 816.13287 4291211067
1.7180734 65.271545 815.97803 4290355755
2.1660821 65.322929 815.80896 4290160169
2.6315453 65.249779 815.60175 4294035773
3.0799558 65.296562 815.44495 4294958407
3.5451519 65.219627 815.28265 4294696770
3.9931612 65.270897 815.19012 4294826822
4.4576688 65.201401 815.07996 4294957374
4.9063845 65.262909 815.05481 4294958660
5.370995 65.206108 815.06555 4294961485
5.8209691 65.27755 815.17572 4294958151
6.2917295 65.228745 815.29608 4294562376
6.7412047 65.298576 815.50098 4289765434
7.210402 65.240349 815.62018 4285687322
7.6593709 65.311096 815.74268 4285626942
8.1264286 65.251083 815.68109 4292199547
8.5735655 65.302505 815.58655 4294956460
9.0339136 65.209671 815.29156 4291871853
9.480547 65.247215 814.97284 4287992650
9.9391479 65.17215 814.63055 4290485314
10.385078 65.209595 814.35291 4293445736
10.845648 65.123108 814.12372 4293844303
11.291602 65.167503 813.96722 4294960239
11.754363 65.102295 813.85797 4294967146
12.200169 65.165726 813.8288 4294966130
12.667964 65.108765 813.8562 4294967143
13.119476 65.166519 813.91193 4294956142
13.58552 65.105988 813.94958 4290219313
14.038148 65.173378 813.99176 4284763668
14.501415 65.12043 814.00684 4284627715
14.955082 65.17643 813.99292 4284300560
15.414237 65.110596 813.9585 4285154323
15.866391 65.165451 813.90692 4285481231
16.324995 65.107063 813.87018 4285219344
16.77681 65.163437 813.80487 4284628749
17.235983 65.104797 813.80475 4284302092
17.689228 65.158966 813.78833 4284367632
18.147987 65.098 813.79559 4283907338
18.598337 65.149567 813.74982 4282661641
19.055279 65.086021 813.72034 4285548032
19.503311 65.146614 813.64435 4290215455
19.960316 65.084991 813.55914 4294960996
20.407804 65.132309 813.47363 4294967177
20.86565 65.068192 813.41217 4294963039
21.317759 65.130547 813.36523 4294361430
21.775274 65.067169 813.30743 4294950727
22.227507 65.11628 813.23767 4294949193
22.679279 65.044411 813.04401 4294953820
23.13026 65.088547 812.9115 4294942026
23.570131 65.010727 812.66095 4289755708
-10.600848 65.392159 810.37866 4294946146
-10.116567 65.345779 810.34277 4294952834
-9.6977501 65.391319 810.36749 4294951281
-9.2088604 65.353027 810.42151 4294946408
-8.7852621 65.403236 810.53918 4293300554
-8.2962799 65.371208 810.67084 4289424430
-7.873971 65.428024 810.86102 4287057955
-7.3855071 65.402832 811.03094 4286072088
-6.9632707 65.46035 811.23639 4284693016
-6.4750204 65.434433 811.43585 4283838995
-6.0569611 65.491631 811.68011 4283181326
-5.5679774 65.47068 811.9325 4282523914
-5.1503735 65.533096 812.22736 4282129929
-4.6609855 65.519913 812.54791 4281867272
-4.2432265 65.591301 812.91705 4281866760
-3.7532208 65.588272 813.35236 4281932040
-3.3350074 65.674202 813.83875 4281801224
-2.8445859 65.691803 814.53357 4281932296
-2.4292831 65.839981 815.98163 4280687117
-1.935562 65.805923 816.23236 4281739541
-1.5192206 65.859619 816.3996 4284960572
-1.0286118 65.820129 816.39404 4288576610
-0.60758364 65.860901 816.36023 4290682988
-0.11832483 65.82019 816.28589 4290619995
0.30382174 65.863609 816.21271 4292396109
0.79515517 65.812828 816.1441 4294954584
1.2202525 65.844284 816.07098 4294628171
1.7095935 65.79068 815.93988 4293443897
2.1325645 65.824165 815.79059 4292983090
2.6233437 65.766014 815.59302 4294953529
3.044107 65.795097 815.44281 4294958398
3.5363071 65.736397 815.28082 4294958657
3.9540172 65.771637 815.19861 4294958657
4.4495397 65.720848 815.0882 4294957118
4.8673439 65.765503 815.07166 4294958399
5.3628654 65.723198 815.06989 4294959682
5.7870612 65.776482 815.18958 4294959420
6.2821069 65.740768 815.2973 4294954824
6.7071996 65.789619 815.521 4289176114
7.2000403 65.749542 815.62689 4287199249
7.6260662 65.814461 815.77875 4288779848
8.1169891 65.783279 815.72119 4294959026
8.5369263 65.816345 815.65186 4294967238
9.027173 65.740616 815.36945 4294960307
9.4440536 65.756897 815.07086 4291209041
9.9330969 65.693848 814.72083 4292580658
10.349925 65.71003 814.4389 4292725581
10.838251 65.64325 814.19666 4294958684
11.256253 65.675011 814.03369 4294962254
11.746865 65.629669 813.90686 4294962517
12.166454 65.670197 813.87012 4294962750
12.661494 65.630081 813.88196 4294957900
13.081958 65.676285 813.93457 4292720438
13.580783 65.626999 813.95844 4289754392
13.99808 65.66198 813.9964 4284958731
14.497086 65.62635 814.00165 4284366082
14.911461 65.670464 813.98981 4284431373
15.411053 65.627861 813.95477 4285153040
15.82257 65.663681 813.90826 4284562187
16.322542 65.622841 813.87799 4284364295
16.733219 65.659996 813.82043 4284037385
17.233957 65.620453 813.82355 4283579401
17.645029 65.657112 813.81158 4283250952
18.14687 65.612381 813.82666 4283577860
18.557096 65.642288 813.7915 4283971849
19.055111 65.606522 813.76917 4285680641
19.465799 65.654327 813.71362 4288833808
19.961365 65.608337 813.64697 4291989800
20.373411 65.64357 813.58142 4291667750
20.868103 65.59964 813.52832 4289103637
21.28224 65.64003 813.49133 4289360667
21.777948 65.592857 813.43085 4287983890
22.19046 65.628845 813.36578 4289293594
22.687162 65.579628 813.32233 4287916058
23.099766 65.615517 813.2782 4287060760
-10.571864 65.804779 810.36615 4294944356
-10.104047 65.740685 810.33093 4294956180
-9.6632719 65.80291 810.35498 4294951553
-9.1966648 65.74688 810.40479 4294949740
-8.7538624 65.814919 810.51611 4293892945
-8.2849789 65.764206 810.64819 4289620785
-7.8420382 65.83902 810.83063 4286140447
-7.3748899 65.795235 811.00397 4285481238
-6.930861 65.872406 811.20306 4284497174
-6.4644895 65.829872 811.40576 4283904787
-6.0214486 65.905396 811.64758 4283247119
-5.5577531 65.864243 811.90088 4282655243
-5.1143413 65.946632 812.19623 4282195722
-4.6508846 65.915672 812.51013 4281867015
-4.20683 66.004738 812.86407 4281669896
-3.7435489 65.976685 813.2641 4281866504
-3.2982984 66.071892 813.65594 4281866760
-2.8348675 66.067963 814.32861 4281866505
-2.3925552 66.27224 816.16449 4280819469
-1.9268597 66.216881 816.27765 4282001687
-1.4841126 66.292015 816.453 4284698944
-1.0194291 66.223526 816.39795 4289434740
-0.5739513 66.284973 816.38 4291735704
-0.1092414 66.221741 816.28583 4291282283
0.33697963 66.277977 816.22162 4294233441
0.80375099 66.206879 816.13599 4294961514
1.2518728 66.259903 816.06866 4294958435
1.7179199 66.18766 815.93109 4293774658
2.1657932 66.238655 815.78601 4292328249
2.631784 66.159584 815.58777 4294362425
3.0796146 66.206154 815.43396 4294956355
3.5451159 66.131248 815.28003 4294958399
3.99299 66.18544 815.19232 4294958400
4.4580941 66.116898 815.08826 4294958665
4.9062676 66.178032 815.05847 4294956605
5.371377 66.11792 815.05933 4294563896
5.8210239 66.186005 815.16827 4294957371
6.2919636 66.128922 815.28662 4293118781
6.7414289 66.194771 815.51062 4289044535
7.2109928 66.141922 815.63519 4286082332
7.6601992 66.237373 815.79437 4286872120
8.1276178 66.191795 815.76062 4292849011
8.5753326 66.242088 815.69824 4294944141
9.0359364 66.151619 815.44318 4293962365
9.4832573 66.187401 815.15552 4288508215
9.9419031 66.094841 814.80792 4288181031
10.389386 66.125824 814.5285 4291075138
10.84805 66.048767 814.28284 4292063560
11.297537 66.099876 814.12024 4292059188
11.756866 66.029655 813.99078 4292126776
12.207575 66.091591 813.95062 4290746143
12.670211 66.039093 813.94788 4289104674
13.124133 66.100204 813.99274 4286933783
13.586787 66.030479 814.00464 4285616147
14.040446 66.081276 814.02832 4283383559
14.501922 66.019737 814.0213 4283708937
14.955542 66.084961 814.00208 4283840268
15.414607 66.027748 813.96735 4284168207
15.86687 66.08345 813.91797 4283773451
16.325607 66.022125 813.89722 4283379721
16.778114 66.077034 813.85101 4283118345
17.237263 66.018715 813.85828 4282724872
17.690792 66.074196 813.84955 4282724361
18.149708 66.010948 813.86566 4282986244
18.601904 66.063927 813.82971 4283512075
19.059185 66.006851 813.80566 4284760592
19.509596 66.070953 813.75378 4286010379
19.967594 66.010658 813.69897 4286733579
20.418234 66.065308 813.64661 4287783176
20.876408 66.004753 813.61041 4285615117
21.329639 66.065163 813.58472 4284105984
21.786045 66.002998 813.51678 4283972096
22.238888 66.044327 813.43402 4284105216
22.69348 65.981842 813.37823 4284299781
23.153896 66.034843 813.31226 4284038658
-10.600566 66.302849 810.36377 4294947181
-10.116528 66.257889 810.32941 4294954138
-9.6974525 66.301918 810.36017 4294959249
-9.2092962 66.262093 810.409 4294951809
-8.7849646 66.31292 810.52515 4293566035
-8.296771 66.280449 810.65607 4289752623
-7.8737578 66.334587 810.84259 4286664483
-7.3855953 66.308167 811.00488 4285285911
-6.9631104 66.366585 811.20685 4284561943
-6.4746904 66.343727 811.40045 4283970323
-6.0567765 66.400551 811.64502 4283247119
-5.5676889 66.377861 811.89301 4282786572
-5.1501141 66.442368 812.1908 4282326794
-4.6607304 66.432289 812.50433 4281932552
-4.2428389 66.501419 812.85596 4281800968
-3.7527566 66.488098 813.25525 4281866503
-3.3344183 66.561478 813.604 4281735176
-2.843812 66.568497 814.18292 4281997575
-2.4310708 66.802582 816.53455 4281080588
-1.9362173 66.769241 816.64703 4281871634
-1.5196332 66.819305 816.68219 4284501558
-1.0276341 66.763954 816.58783 4290018156
-0.60749602 66.797134 816.45544 4293636483
-0.11682763 66.751114 816.35626 4291868532
0.30431497 66.782532 816.27429 4291870287
0.79639274 66.728401 816.19611 4294952534
1.2206956 66.766655 816.11993 4293905221
1.7091453 66.715294 815.98718 4293179445
2.1332169 66.742371 815.83777 4291732778
2.6232285 66.677361 815.62946 4293374254
3.044646 66.704071 815.46399 4294692415
3.5363276 66.650269 815.29504 4294433089
3.9543855 66.6856 815.20319 4294629945
4.4497676 66.63588 815.08984 4294956858
4.8673263 66.679802 815.06482 4294693434
5.3628964 66.633957 815.05237 4293972283
5.7868319 66.682343 815.17566 4293971771
6.2821374 66.642075 815.29047 4293181258
6.7078848 66.688454 815.55463 4289959732
7.2025018 66.661385 815.67255 4285162768
7.6274753 66.743111 815.86279 4285155353
8.1225433 66.716194 815.836 4285616924
8.5398388 66.749115 815.79773 4286009127
9.0347614 66.682991 815.55896 4285613336
9.4485016 66.702126 815.29779 4285742102
9.941493 66.628349 814.95551 4283911948
10.354574 66.639351 814.67865 4286407197
10.846857 66.574883 814.43207 4286671392
11.262549 66.606781 814.27228 4287062552
11.756338 66.560982 814.14197 4285620502
12.172846 66.603287 814.09271 4286208277
12.669855 66.563728 814.07288 4284175383
13.086677 66.610435 814.10547 4284761365
13.585822 66.558159 814.09546 4283579406
14.000174 66.582336 814.09662 4283774734
14.499388 66.538254 814.06873 4283381516
14.912796 66.582077 814.04303 4282921481
15.412153 66.545235 813.99902 4283117323
15.823627 66.582436 813.9491 4282788619
16.323668 66.539482 813.92822 4282067208
16.734756 66.575165 813.89014 4282001928
17.235575 66.537041 813.89337 4281739784
17.64687 66.573929 813.8869 4281936136
18.148668 66.528381 813.90295 4281870597
18.559305 66.559044 813.88171 4282526471
19.059071 66.524956 813.86572 4282920709
19.47024 66.572418 813.84045 4283709450
19.968962 66.532539 813.80829 4283056147
20.381117 66.574638 813.78113 4283579664
20.879639 66.538368 813.76312 4281873162
21.292431 66.581367 813.74628 4282002186
21.790228 66.530586 813.68768 4281150729
22.200466 66.557602 813.60425 4281936908
22.698721 66.508667 813.54956 4281609485
23.109406 66.545731 813.479 4282133261
-10.571754 66.716156 810.36237 4294945388
-10.10383 66.65313 810.33032 4294955916
-9.6631222 66.714607 810.35419 4294955918
-9.1961803 66.656212 810.40027 4294952819
-8.7536201 66.724213 810.50201 4294680403
-8.2847157 66.673546 810.63275 4290672185
-7.8416643 66.746841 810.8067 4286994983
-7.3744264 66.70134 810.97327 4285481493
-6.9304934 66.777527 811.16675 4284300565
-6.4641337 66.735245 811.36578 4283970066
-6.0211329 66.813133 811.60828 4283575055
-5.55757 66.774094 811.86389 4283048972
-5.114068 66.858147 812.164 4282326795
-4.6506834 66.826164 812.47601 4281997833
-4.2065916 66.913506 812.82031 4281735432
-3.743247 66.880798 813.20111 4281800711
-3.2979052 66.963829 813.53864 4281866504
-2.8341138 66.948654 814.12964 4281932298
-2.392971 67.199562 816.3573 4280884491
-1.9270303 67.16111 816.44653 4281410576
-1.4825556 67.235497 816.58752 4283515432
-1.0179409 67.163933 816.53497 4286538827
-0.57010621 67.224457 816.50726 4287197014
-0.10546794 67.1577 816.4281 4287398728
0.34091479 67.205238 816.37659 4288842806
0.80916661 67.131607 816.28345 4290551101
1.2543857 67.188324 816.20721 4290681650
1.7216339 67.121262 816.05829 4289564197
2.1667202 67.16304 815.89618 4288580121
2.6335707 67.071877 815.66846 4292192048
3.0802648 67.118561 815.48743 4294494010
3.5449479 67.045631 815.30951 4294236736
3.9934225 67.100906 815.20319 4294892348
4.4580946 67.032326 815.08618 4294104122
4.906373 67.091072 815.05011 4293971771
5.37151 67.026253 815.04028 4293970493
5.8207855 67.095284 815.15521 4294689594
6.2925911 67.036461 815.28333 4292983875
6.743567 67.106102 815.55109 4289891378
7.2139359 67.061356 815.68976 4284895515
7.6651573 67.163689 815.88629 4281545478
8.1323023 67.115219 815.87817 4282656000
8.5825224 67.168098 815.84937 4282921220
9.0429211 67.085831 815.6264 4282721282
9.4916277 67.127151 815.38776 4282134276
9.9500856 67.034042 815.04285 4282658826
10.398081 67.062401 814.7818 4283776519
10.856651 66.982117 814.53247 4283842058
11.306704 67.033676 814.38965 4283580162
11.766042 66.964813 814.26605 4283447043
12.217512 67.02948 814.22534 4283710213
12.678927 66.977341 814.19476 4283643147
13.131441 67.035019 814.21997 4283577354
13.592733 66.961464 814.19647 4283314702
14.044723 67.006569 814.17786 4283118350
14.505205 66.938614 814.13092 4282659085
14.957507 67.002357 814.0929 4282395655
15.416369 66.946373 814.04535 4282001158
15.868576 67.003105 813.99255 4281476360
16.327389 66.940674 813.9743 4281344518
16.78039 66.997047 813.94592 4281279750
17.23929 66.938126 813.94604 4281279237
17.693039 66.993874 813.93817 4281213957
18.1516 66.92907 813.94434 4281344516
18.605284 66.984268 813.92133 4281542147
19.062946 66.925529 813.90497 4281869572
19.515623 66.987434 813.88397 4282329347
19.974531 66.930763 813.86609 4282395658
20.427999 66.995178 813.85559 4282264326
20.886946 66.943947 813.86249 4281213956
21.340868 67.006126 813.85431 4280754691
21.797735 66.937149 813.8031 4280884997
22.252239 66.985168 813.78253 4280951045
22.70771 66.922691 813.75299 4281212677
-10.600729 67.213554 810.37006 4294944095
-10.116249 67.170059 810.33923 4294947953
-9.6973286 67.214088 810.36426 4294951788
-9.2086763 67.172691 810.40814 4294948195
-8.7846527 67.222282 810.51135 4293369164
-8.2968645 67.190163 810.63831 4291263289
-7.873096 67.241417 810.81329 4288699692
-7.3855515 67.213303 810.97083 4286203930
-6.9627914 67.271187 811.16809 4284627734
-6.4744897 67.251045 811.35919 4283905041
-6.0564675 67.309189 811.60626 4283641105
-5.5675545 67.288269 811.85931 4283377166
-5.1498342 67.353935 812.16583 4282589196
-4.6605101 67.341591 812.47839 4281932552
-4.2427912 67.409767 812.83185 4281800712
-3.7526727 67.396873 813.22211 4281800712
-3.3345561 67.466713 813.58539 4281932297
-2.843791 67.46949 814.15076 4282194698
-2.4305284 67.701775 816.43158 4281277195
-1.9348571 67.684441 816.59937 4281148428
-1.5179425 67.746452 816.69067 4282659611
-1.024178 67.699265 816.6684 4284237352
-0.60383004 67.734985 816.59302 4283451431
-0.11107253 67.686714 816.54797 4283716897
0.31013095 67.714729 816.49548 4286210598
0.80233347 67.661736 816.422 4287263532
1.2262758 67.7006 816.33667 4287395364
1.7134804 67.653061 816.20233 4287001622
2.1388013 67.671402 816.02948 4288510235
2.6255159 67.600471 815.79523 4291732009
3.0485916 67.623497 815.59833 4293118775
3.5367224 67.572136 815.40094 4293974599
3.9565957 67.607559 815.28558 4294500162
4.4500723 67.556976 815.1571 4293185853
4.869669 67.596252 815.12817 4293642813
5.3640752 67.550751 815.11261 4293837628
5.7894421 67.599663 815.24066 4294494014
6.2851248 67.56147 815.36487 4293242951
6.7122874 67.619766 815.65826 4288380455
7.2080421 67.597168 815.79181 4283384583
7.6318965 67.666176 815.99994 4281476365
8.1288252 67.634583 815.99103 4281017866
8.5455379 67.670944 815.97607 4281083151
9.0414543 67.61116 815.75916 4281149454
9.455265 67.63694 815.54572 4281278730
9.9490423 67.569199 815.2063 4281017606
10.362042 67.57901 814.95587 4281477130
10.855381 67.512886 814.70428 4281609484
11.27036 67.54776 814.56934 4282199052
11.765733 67.499908 814.45068 4281412620
12.181378 67.540237 814.40918 4281870602
12.678971 67.505051 814.37024 4281542408
13.093669 67.548126 814.38623 4281935626
13.592644 67.489632 814.34937 4282001931
14.005213 67.508568 814.30853 4282330123
14.503814 67.464485 814.2417 4281805067
14.91578 67.507355 814.19019 4281672969
15.414913 67.469482 814.133 4281082632
15.826181 67.504181 814.07404 4281213449
16.326313 67.461945 814.05255 4280754695
16.73769 67.498886 814.02753 4281016840
17.238478 67.460594 814.0235 4280820488
17.649916 67.497643 814.01385 4281082376
18.151207 67.453117 814.01398 4280820231
18.562378 67.487503 814.00653 4281147911
19.063574 67.45163 814.00165 4280886024
19.474714 67.49118 814.01062 4281541898
19.976973 67.450798 814.01715 4281214732
20.388052 67.501274 814.03979 4281017352
20.891644 67.481323 814.07355 4280229637
21.301455 67.523895 814.07648 4280228358
21.80448 67.478035 814.11786 4280097285
22.215849 67.51429 814.14075 4280228102
22.715864 67.474625 814.16956 4280491011
-10.571743 67.626747 810.367 4293564752
-10.104077 67.563126 810.33325 4294945884
-9.6629887 67.624779 810.34747 4294948186
-9.1960802 67.565689 810.38751 4294683730
-8.7550888 67.633636 810.47791 4294156114
-8.2863808 67.582268 810.60699 4291592516
-7.8430324 67.653488 810.77271 4288897069
-7.3755879 67.605698 810.93988 4287187746
-6.931541 67.683861 811.13208 4285284121
-6.4653955 67.643753 811.33313 4284298514
-6.0209966 67.723099 811.578 4284035349
-5.5574808 67.684837 811.84064 4283640339
-5.1139483 67.769279 812.14514 4282654989
-4.6505527 67.735382 812.45569 4282063623
-4.2065296 67.823349 812.80646 4281735688
-3.7433038 67.79171 813.19189 4281932041
-3.2981553 67.881073 813.62018 4282194699
-2.8348691 67.867744 814.27112 4282129677
-2.3918273 68.068497 815.87073 4281211658
-1.9253318 68.051437 816.16656 4280883978
-1.4795817 68.14402 816.44958 4281345296
-1.0148377 68.087372 816.55322 4282199058
-0.56566507 68.15477 816.62506 4282200337
-0.10041962 68.092087 816.62646 4282659600
0.3470127 68.143417 816.62561 4284040979
0.81477058 68.070961 816.55084 4285421340
1.2609265 68.125542 816.48083 4285750552
1.7277915 68.061562 816.34027 4285421068
2.1718819 68.103836 816.17236 4285622802
2.6380928 68.007622 815.92841 4290091561
3.0838354 68.05188 815.72906 4293773891
3.5475519 67.979805 815.52411 4293452613
3.9958372 68.032295 815.4024 4293713485
4.4587841 67.962349 815.27075 4292727357
4.908668 68.022316 815.23553 4292724810
5.3740335 67.955498 815.22296 4293708872
5.8248653 68.025017 815.33679 4294689096
6.2956147 67.973343 815.46344 4291734590
6.7484851 68.056946 815.73138 4287131175
7.2186184 68.012894 815.88074 4282528519
7.6713848 68.088387 816.08142 4279705865
8.1366758 68.029808 816.08868 4280752902
8.588316 68.092415 816.07959 4280819465
9.0487299 68.016426 815.87183 4280753417
9.4984703 68.067184 815.67822 4280424965
9.9568377 67.980354 815.33209 4280555524
10.405732 68.008606 815.09894 4280950276
10.864223 67.923042 814.83759 4281212934
11.314986 67.976059 814.72052 4281278726
11.774583 67.906471 814.60297 4281147398
12.226799 67.971016 814.57776 4281082118
12.686755 67.917633 814.53229 4280950277
13.139414 67.974815 814.55267 4280885766
13.599194 67.898048 814.50977 4281279496
14.051116 67.942162 814.46063 4281739529
14.509787 67.873787 814.37866 4281607944
14.961845 67.935753 814.315 4281279750
15.420456 67.876282 814.25037 4281213446
15.872517 67.931801 814.18604 4281083143
16.331331 67.868507 814.16138 4281082631
16.784586 67.925751 814.14093 4281083143
17.243452 67.866508 814.1358 4281148424
17.697218 67.924736 814.12469 4281148680
18.155628 67.860519 814.11304 4281279753
18.609564 67.916504 814.10254 4281345544
19.067707 67.856575 814.099 4281214472
19.522676 67.916351 814.10907 4281345801
19.98143 67.85836 814.12451 4281082889
20.437309 67.930237 814.15985 4280623110
20.896477 67.88475 814.21051 4280097028
21.351822 67.945786 814.2196 4279703044
21.810062 67.881096 814.24963 4279767811
22.264433 67.93322 814.26239 4279703045
22.723167 67.881493 814.2796 4280162051
-10.600401 68.124443 810.37213 4293825871
-10.116293 68.079971 810.33966 4294945374
-9.6968374 68.12059 810.35529 4294946904
-9.208313 68.079529 810.39319 4294945888
-8.7843723 68.129936 810.48547 4294811222
-8.2985058 68.099968 810.60968 4291460929
-7.8729463 68.151405 810.77686 4289028397
-7.3870139 68.121071 810.9364 4287450398
-6.9626679 68.176102 811.13464 4285743131
-6.4758301 68.157478 811.33044 4284627480
-6.0564351 68.217705 811.58124 4284494615
-5.5675507 68.199623 811.84387 4283902483
-5.1497707 68.265663 812.15277 4282917389
-4.6603394 68.253128 812.46399 4282195208
-4.2427011 68.320038 812.82031 4281932298
-3.7527332 68.308052 813.2182 4282063370
-3.3347783 68.386772 813.70001 4282326028
-2.8441961 68.396858 814.3609 4282260493
-2.4281428 68.551041 815.73779 4281342218
-1.9347413 68.558746 816.14221 4280489991
-1.5160755 68.643066 816.47205 4280818188
-1.0212389 68.615807 816.64246 4281016335
-0.60128677 68.660912 816.73364 4281213199
-0.10673192 68.619011 816.7655 4281018121
0.31440687 68.65094 816.77789 4282396944
0.80755448 68.601631 816.73328 4283450135
1.2298573 68.642204 816.67145 4283647250
1.7198582 68.601662 816.56708 4283778307
2.1432188 68.622498 816.41656 4285223950
2.6323545 68.551964 816.19214 4289036060
3.0540771 68.575714 815.99811 4291408944
3.5442131 68.522224 815.78339 4293838661
3.9644911 68.556084 815.66101 4292659513
4.458148 68.503464 815.51813 4293704510
4.8777905 68.541412 815.49597 4292851517
5.3729525 68.499809 815.47681 4293897791
5.7958164 68.553741 815.59979 4291142446
6.2931299 68.525848 815.70758 4290675761
6.7164669 68.598587 815.96716 4285092632
7.2145762 68.553734 816.09564 4281412096
7.6348157 68.586449 816.28845 4280359178
8.1334343 68.552826 816.29114 4280227846
8.5490828 68.60231 816.28918 4280162055
9.0459633 68.553406 816.08777 4280096519
9.4595709 68.585037 815.91016 4280029958
9.9545937 68.51899 815.57733 4279833348
10.367281 68.529373 815.34521 4280096261
10.862633 68.459503 815.07861 4280293638
11.275889 68.490944 814.95392 4280490502
11.773683 68.442024 814.83795 4280425222
12.187534 68.487221 814.80621 4280424966
12.686607 68.454407 814.76355 4280359684
13.10024 68.490021 814.78064 4280491014
13.599552 68.43158 814.74231 4280819975
14.011897 68.455826 814.68536 4281542411
14.510283 68.413223 814.60071 4282002190
14.922273 68.449852 814.52899 4282001931
15.421302 68.408974 814.4621 4281542922
15.832631 68.443199 814.39185 4281542922
16.332745 68.402138 814.36395 4281543178
16.744383 68.438965 814.34467 4281740300
17.24527 68.400528 814.33484 4281608972
17.656796 68.43866 814.32404 4281805836
18.157753 68.395363 814.30249 4281871629
18.569391 68.430397 814.31134 4281937677
19.071054 68.390198 814.31171 4281937422
19.483173 68.430122 814.34943 4281740045
19.986105 68.397232 814.37115 4281213963
20.398439 68.451248 814.43689 4280359686
20.902603 68.424065 814.48413 4279834114
21.31324 68.462631 814.5072 4279505155
21.816696 68.422234 814.55554 4279308546
22.228579 68.463272 814.58862 4279373828
22.729355 68.42495 814.6142 4279570947
-10.571495 68.536224 810.36188 4294808914
-10.104076 68.470398 810.32507 4294946915
-9.6624765 68.530365 810.33551 4294947165
-9.1959305 68.471428 810.36987 4294947688
-8.7545595 68.542152 810.45416 4294941271
-8.2878733 68.49176 810.57666 4291788606
-7.8426404 68.563179 810.73956 4289292592
-7.3769131 68.513435 810.90717 4287779365
-6.9314151 68.589943 811.10419 4285940764
-6.4667563 68.549484 811.31006 4285020695
-6.0211043 68.632492 811.55933 4284232213
-5.5574722 68.596878 811.83026 4283837458
-5.1140394 68.682335 812.13568 4282983438
-4.6505156 68.646202 812.44586 4282457354
-4.2066245 68.732826 812.79645 4282194955
-3.7432287 68.703926 813.18695 4282260491
-3.2984588 68.80072 813.70605 4282391564
-2.8346708 68.784828 814.3266 4282129677
-2.3895457 68.927689 815.27069 4281341961
-1.9250675 68.926712 815.77094 4280685318
-1.4777092 69.043839 816.32416 4280489224
-1.0123256 69.004906 816.59399 4280817674
-0.56326044 69.082321 816.8045 4280949514
-0.09695977 69.025108 816.88049 4281015306
0.35141304 69.086647 816.9566 4281476362
0.81879365 69.016975 816.91681 4282133771
1.2662672 69.072578 816.88531 4282528525
1.7328792 69.013252 816.7832 4282855688
2.1788151 69.066513 816.66632 4283449865
2.6447337 68.978386 816.45264 4286407191
3.0918827 69.022385 816.2829 4289692711
3.555727 68.949715 816.07745 4289565996
4.0049648 69.001198 815.9632 4290480938
4.4678445 68.926811 815.82434 4289693743
4.9184632 68.985001 815.79712 4289296423
5.3836932 68.923088 815.7793 4288640550
5.8351989 68.998848 815.87579 4288176919
6.3030133 68.952492 815.97186 4286009369
6.7558041 69.029495 816.17291 4282724360
7.2234607 68.964905 816.29492 4280752900
7.6762805 69.015533 816.42572 4279769097
8.1403503 68.958466 816.44366 4279898886
8.5925932 69.036179 816.44183 4279767813
9.0534592 68.969856 816.27289 4279635972
9.5036564 69.023628 816.11487 4279439107
9.962616 68.938286 815.80042 4279569923
10.412001 68.963097 815.56519 4279702019
10.87009 68.870476 815.27466 4279899140
11.321214 68.924171 815.15704 4280030468
11.780939 68.855766 815.03717 4280030725
12.233787 68.922844 815.02905 4280030725
12.694004 68.866585 814.987 4280096003
13.147288 68.924339 815.0213 4280097028
13.6075 68.852043 814.98926 4280622341
14.059591 68.900558 814.94275 4281607691
14.518325 68.832214 814.85773 4282462224
14.97061 68.89093 814.78534 4282593295
15.4293 68.827415 814.71497 4282200334
15.881484 68.883209 814.64069 4282134801
16.340315 68.820244 814.60406 4282200847
16.793901 68.87838 814.58344 4282397457
17.252775 68.818161 814.56952 4282200591
17.70677 68.877045 814.55426 4282134802
18.164886 68.812088 814.51746 4282332433
18.61912 68.868202 814.51501 4282725909
19.077492 68.805962 814.50452 4282397970
19.533123 68.869484 814.534 4282199312
19.992077 68.811768 814.53986 4281213707
20.448471 68.884354 814.59387 4280096517
20.907854 68.830902 814.63489 4279570177
21.363424 68.887802 814.65143 4279111170
21.822138 68.825195 814.67902 4279176194
22.276459 68.885719 814.68121 4279176706
22.735195 68.829254 814.68579 4279176707
23.182819 68.889252 814.65234 4279177218
-10.600257 69.029526 810.35974 4294810454
-10.116035 68.985634 810.32477 4294947690
-9.6966534 69.02742 810.33838 4294949993
-9.2075062 68.988106 810.37048 4294947955
-8.7859516 69.039413 810.46143 4294942810
-8.2995672 69.007835 810.57904 4292248902
-7.8743911 69.058563 810.7467 4289686069
-7.3882108 69.028954 810.90796 4287977253
-6.9639282 69.084656 811.11243 4286268958
-6.4771852 69.065651 811.31158 4285283607
-6.0563073 69.128212 811.56586 4284232212
-5.5674992 69.112946 811.8316 4284034322
-5.1496673 69.176201 812.13806 4283114766
-4.6602063 69.159706 812.4425 4282654475
-4.2426291 69.225708 812.78949 4282391819
-3.7526059 69.221016 813.17755 4282260747
-3.3346853 69.300179 813.69537 4282195211
-2.8437138 69.304657 814.29742 4282063885
-2.4263923 69.411926 815.11847 4281407241
-1.9333584 69.428741 815.67688 4280620038
-1.5159826 69.55069 816.46301 4280357384
-1.0206729 69.537918 816.77386 4280226824
-0.60145539 69.592766 817.005 4280358153
-0.10534956 69.558189 817.08771 4280293129
0.3146638 69.603561 817.16608 4280753162
0.81099367 69.557114 817.15173 4280885772
1.2308036 69.588806 817.12683 4281344778
1.7257965 69.555504 817.07172 4281213957
2.1462991 69.602432 817.00488 4282264071
2.6398597 69.543076 816.85217 4282924040
3.0599809 69.565216 816.72321 4284238605
3.5534582 69.506447 816.55225 4283912206
3.9729967 69.538086 816.4469 4284762636
4.4680247 69.48587 816.3031 4283647240
