# .PCD v0.7 - Point Cloud Data file format
VERSION 0.7
FIELDS x y z rgb
SIZE 4 4 4 4
TYPE F F F U
COUNT 1 1 1 1
WIDTH 1146
HEIGHT 1
VIEWPOINT 0 0 0 1 0 0 0
POINTS 1146
DATA ascii
216.62703 -125.58246 611.90295 4280882440
216.90187 -125.5135 611.94312 4280751368
217.35979 -125.60346 611.98792 4280751112
217.63469 -125.5378 612.0285 4280489224
218.09232 -125.62569 612.07117 4280357640
218.36449 -125.55363 612.10419 4280226313
218.81984 -125.63994 612.13898 4279898633
219.0894 -125.56994 612.16522 4279964169
219.54324 -125.65665 612.19379 4279963656
219.81355 -125.58596 612.2226 4279832328
220.26973 -125.67229 612.25635 4279766792
220.54248 -125.60528 612.29352 4279700999
221.00127 -125.69283 612.33386 4279569927
221.27614 -125.62605 612.37701 4279635463
221.73659 -125.7132 612.42084 4279635207
222.01244 -125.64717 612.46729 4279635207
222.47218 -125.73389 612.50854 4279569670
222.74704 -125.6706 612.55219 4279635206
223.20712 -125.7569 612.59277 4279634950
223.4817 -125.6908 612.63617 4279569414
223.94188 -125.77645 612.67633 4279438342
224.21519 -125.71125 612.71661 4279503621
224.67535 -125.79752 612.75562 4279438084
224.94882 -125.73174 612.79688 4279438084
225.40898 -125.81525 612.83551 4279372548
225.68335 -125.75089 612.87897 4279503876
226.14633 -125.83868 612.92468 4279569412
226.42268 -125.77763 612.97321 4279569667
226.88925 -125.86621 613.02936 4279700740
227.16718 -125.8009 613.08057 4279635203
227.63411 -125.8901 613.13647 4279700227
227.91298 -125.82916 613.19116 4279568900
228.37915 -125.91458 613.24347 4279437827
228.65675 -125.8511 613.2951 4279437827
229.12111 -125.93719 613.34088 4279503363
229.39647 -125.87672 613.38733 4279568644
229.86163 -125.96225 613.43378 4279568643
230.13835 -125.90048 613.4845 4279503108
230.60361 -125.98479 613.53076 4279372035
230.88069 -125.92285 613.58258 4279437827
231.34761 -126.00827 613.63196 4279503363
231.62654 -125.95037 613.68878 4279437826
232.09653 -126.03728 613.74664 4279437826
232.37564 -125.97704 613.80298 4279503106
232.84528 -126.06406 613.85956 4279437570
233.12558 -126.00658 613.91852 4279437570
233.59496 -126.09258 613.97473 4279372034
233.87648 -126.03284 614.03589 4279372034
234.34543 -126.11809 614.09039 4279437571
234.62016 -126.05505 614.13367 4279437571
235.08575 -126.14005 614.17938 4279371779
235.36143 -126.0796 614.22412 4279306243
235.82956 -126.16472 614.27429 4279240707
236.10742 -126.10598 614.32629 4279240706
236.57979 -126.19044 614.38593 4279240706
236.86165 -126.13312 614.4491 4279174914
237.34177 -126.22341 614.52679 4279174915
237.6261 -126.16933 614.59723 4279109378
238.10138 -126.25381 614.66211 4279043586
238.38313 -126.19637 614.72577 4279043842
238.85712 -126.28156 614.7868 4279043842
239.13531 -126.22504 614.84064 4279043842
239.60959 -126.31174 614.90173 4279174914
239.88559 -126.25371 614.94934 4279043842
240.35229 -126.33263 614.99152 4278978306
240.6212 -126.27383 615.04041 4278978050
241.09273 -126.35446 615.0744 4278978050
241.36882 -126.29767 615.12207 4278978050
241.83737 -126.38166 615.1673 4278978050
242.11548 -126.32164 615.2196 4278977794
242.57951 -126.39729 615.25299 4278912258
242.86362 -126.33935 615.32074 4278912258
243.33041 -126.42081 615.3606 4278912258
243.61362 -126.36935 615.42505 4278912258
244.08827 -126.45723 615.48468 4278977794
244.36627 -126.39596 615.53571 4278912258
244.84673 -126.47599 615.61072 4278912258
245.13666 -126.42805 615.69019 4278912258
245.61806 -126.52193 615.76703 4278846722
245.9171 -126.47348 615.86908 4278781186
246.40491 -126.55953 615.96088 4278846722
246.71204 -126.52057 616.08282 4278780930
247.21671 -126.62318 616.21533 4278715394
247.53276 -126.58622 616.35974 4278715138
248.06424 -126.69823 616.55774 4278584065
248.38782 -126.65885 616.72028 4278583809
248.94188 -126.78369 616.9729 4278452737
249.26755 -126.74982 617.13898 4278452737
249.78801 -126.85411 617.30682 4278386945
250.07768 -126.80151 617.38428 4278386945
250.57158 -126.89414 617.48651 4278255872
178.54265 -124.40329 608.92413 4279044614
179.16914 -124.3616 608.6861 4278979079
179.53145 -124.35664 608.57275 4278781958
179.78668 -124.30385 608.41833 4278716165
180.17152 -124.31628 608.37897 4278781958
180.44716 -124.28061 608.29712 4278913030
180.84268 -124.29767 608.29388 4278847493
181.13531 -124.27413 608.27216 4278913030
181.54143 -124.30286 608.30457 4278913029
181.84535 -124.2849 608.32074 4278913029
182.25204 -124.31297 608.35455 4278847236
182.55487 -124.30241 608.36603 4278847236
182.95892 -124.33449 608.39056 4278781700
183.2598 -124.32658 608.39856 4278912515
183.65987 -124.35313 608.41284 4279175428
183.95679 -124.33386 608.40747 4279569157
184.3541 -124.35315 608.4101 4280093958
184.65123 -124.33128 608.4068 4280356871
185.05035 -124.3503 608.41626 4280618757
185.34845 -124.32779 608.41553 4280619014
185.76257 -124.36631 608.46747 4280749828
186.07419 -124.36191 608.51373 4280684293
186.49686 -124.40154 608.59406 4280684292
186.8084 -124.38969 608.64001 4280553220
187.21681 -124.41349 608.66772 4280291075
187.52307 -124.40051 608.69958 4280159745
187.93382 -124.43475 608.73419 4280291076
188.23184 -124.41673 608.73773 4280356613
188.63715 -124.44215 608.75555 4280225541
188.90454 -124.43127 608.79114 4280028932
189.37173 -124.46975 608.87628 4280028933
189.70355 -124.47389 608.98975 4280028677
190.1561 -124.53151 609.15131 4279963141
190.48868 -124.53732 609.26953 4279963140
190.95097 -124.59914 609.46283 4279897861
191.26303 -124.61417 609.61859 4280029445
191.70711 -124.66525 609.72321 4280160775
192.02211 -124.65549 609.81708 4280292359
192.48627 -124.69847 609.91296 4280489223
192.78964 -124.67735 609.93298 4280489222
193.55054 -124.72358 610.12738 4280225796
194.31389 -124.78018 610.32886 4280226052
194.73933 -124.80759 610.39612 4280357636
195.05159 -124.79812 610.4458 4280554757
195.47363 -124.83681 610.50854 4280685829
195.80783 -124.84096 610.62683 4280685829
196.23245 -124.87386 610.69629 4280620292
196.56348 -124.87984 610.80225 4280423172
196.96838 -124.9267 610.8855 4280357636
197.29311 -124.90288 610.89734 4280291843
197.70259 -124.94324 610.95782 4280423172
198.01073 -124.91973 610.95135 4280554501
198.41167 -124.9388 610.94403 4280554500
198.71916 -124.92535 610.97888 4280619780
199.12988 -124.95271 610.99591 4280816389
199.43689 -124.94268 611.0318 4280750342
199.85536 -124.97182 611.07233 4280684292
200.15639 -124.95821 611.09131 4280684549
200.56975 -124.98623 611.11475 4280750083
200.86803 -124.96974 611.12494 4280684548
201.2713 -124.98643 611.11914 4280619011
201.57162 -124.97153 611.13519 4280619267
201.98004 -124.99933 611.14343 4280684803
202.28369 -124.98773 611.17108 4280815876
202.69566 -125.01198 611.18982 4280881668
202.99684 -124.99751 611.21222 4281078276
203.40819 -125.02279 611.22516 4280881667
203.70503 -125.00871 611.23639 4281012483
204.11522 -125.03137 611.24359 4281078276
204.40755 -125.01154 611.24164 4281078534
204.81514 -125.0318 611.23993 4281013510
205.11229 -125.01612 611.25232 4281079045
205.52489 -125.04229 611.26666 4281210375
205.82426 -125.02914 611.28442 4281210375
206.23936 -125.05606 611.30762 4281013766
206.54272 -125.04182 611.33588 4280816645
206.96097 -125.06945 611.36713 4280947718
207.26369 -125.05719 611.39398 4280947464
207.67744 -125.0831 611.41089 4280291590
207.97882 -125.07096 611.43396 4279832069
208.39229 -125.09618 611.44843 4279569926
208.6926 -125.08204 611.46802 4279635205
209.10355 -125.10509 611.47772 4279701254
209.4028 -125.09037 611.4942 4279832070
209.81427 -125.11491 611.50415 4279832326
210.11334 -125.10135 611.51996 4279832326
210.52686 -125.1263 611.53662 4279701255
210.82649 -125.11154 611.55457 4279701254
211.24304 -125.13793 611.57794 4279832583
211.54309 -125.12436 611.59601 4279898120
211.96036 -125.15099 611.62329 4279832327
212.26096 -125.13599 611.64209 4279766791
212.67807 -125.16222 611.66815 4279832584
212.97693 -125.14683 611.68304 4279964168
213.39452 -125.17495 611.71155 4280161289
213.69267 -125.15905 611.72461 4280161545
214.11189 -125.18874 611.75403 4280292618
214.41113 -125.17528 611.77112 4280292873
214.83182 -125.20187 611.80432 4280423945
215.13292 -125.18777 611.8252 4280686344
215.55371 -125.21791 611.8587 4281013769
215.85611 -125.20564 611.88367 4281210891
216.27939 -125.23576 611.92328 4281145097
216.58377 -125.22462 611.95538 4281145098
217.00873 -125.25444 611.99902 4280948234
217.31372 -125.24334 612.03436 4280751882
217.7403 -125.27494 612.07886 4280817674
218.04488 -125.26371 612.11255 4280620553
218.46742 -125.29276 612.14789 4280161033
218.77013 -125.27987 612.17383 4280029959
219.19005 -125.30556 612.20087 4280095754
219.49023 -125.29214 612.22095 4280029706
219.91113 -125.32083 612.24976 4279832585
220.21222 -125.30876 612.27399 4279767048
220.6371 -125.33707 612.3111 4279635975
220.93968 -125.32474 612.34106 4279635718
221.36748 -125.35593 612.38525 4279635975
221.67186 -125.34593 612.41852 4279701255
222.10042 -125.37697 612.46521 4279701255
222.40326 -125.3637 612.49591 4279701255
222.83116 -125.39343 612.53955 4279701255
223.13358 -125.38338 612.56952 4279766790
223.56151 -125.41222 612.61218 4279700998
223.86279 -125.40151 612.64166 4279700998
224.29152 -125.43001 612.68231 4279700742
224.59354 -125.41883 612.71191 4279700998
225.02254 -125.44957 612.75446 4279569669
225.32538 -125.43967 612.78534 4279504132
225.75464 -125.46835 612.83026 4279635461
226.06036 -125.45859 612.86768 4279832582
226.49084 -125.4902 612.91656 4279832325
226.79927 -125.48302 612.96246 4279832581
227.23218 -125.51337 613.01672 4279963397
227.54053 -125.50536 613.06213 4279897861
227.97539 -125.53944 613.11884 4279700741
228.28354 -125.53207 613.16321 4279569155
228.71663 -125.56288 613.21674 4279503877
229.02272 -125.55433 613.25519 4279569156
229.45389 -125.58431 613.30121 4279700228
229.75935 -125.57319 613.33759 4279765766
230.19167 -125.60361 613.38739 4279634692
230.49628 -125.59534 613.42297 4279503363
230.92926 -125.6263 613.47327 4279503619
231.23538 -125.61777 613.5119 4279634691
231.67107 -125.64935 613.5694 4279634690
231.98021 -125.64313 613.61713 4279634690
232.41649 -125.67599 613.67468 4279634690
232.72543 -125.66983 613.7218 4279634690
233.16428 -125.70141 613.7829 4279634690
233.47298 -125.69524 613.83093 4279503362
233.91232 -125.72706 613.89215 4279437826
234.21933 -125.72063 613.93744 4279503363
234.65637 -125.74893 613.99078 4279503363
234.96524 -125.74329 614.039 4279503363
235.40297 -125.77439 614.0946 4279437570
235.71388 -125.77058 614.14801 4279437571
236.15424 -125.80209 614.21088 4279437571
236.46866 -125.79934 614.27191 4279372035
236.9133 -125.83508 614.34558 4279372035
237.22987 -125.83173 614.41156 4279306243
237.67484 -125.86643 614.48584 4279306243
237.98914 -125.86258 614.54553 4279240707
238.43158 -125.89623 614.61377 4279175171
238.74448 -125.89155 614.66888 4279175170
239.1833 -125.92284 614.72827 4279175170
239.49545 -125.91696 614.78235 4279240707
239.93253 -125.94771 614.83643 4279175171
240.23898 -125.94067 614.87579 4279109634
240.67514 -125.9727 614.92542 4279109635
240.9798 -125.96564 614.9599 4279175170
241.41653 -125.99335 615.00952 4279174914
241.72398 -125.98456 615.05121 4279174915
242.16406 -126.0153 615.10876 4279174915
242.4668 -126.00544 615.13867 4279174914
242.91325 -126.04066 615.2113 4279109122
243.21811 -126.03265 615.24854 4279109378
243.66389 -126.06447 615.31775 4279174914
243.97368 -126.06165 615.36951 4279174915
244.41615 -126.0912 615.42816 4279240450
244.72977 -126.08918 615.49054 4279174914
245.18451 -126.12358 615.57819 4279174914
245.50241 -126.12804 615.6452 4279174914
245.96437 -126.16807 615.75574 4279174914
246.28745 -126.1675 615.83643 4279109379
246.75928 -126.21206 615.97052 4279109123
247.09602 -126.21761 616.08569 4279043587
247.57997 -126.27468 616.24695 4278978050
247.93767 -126.29784 616.41418 4278912258
248.433 -126.35238 616.60223 4278846466
248.80507 -126.37788 616.80469 4278780930
249.30098 -126.43529 616.99823 4278715138
249.65428 -126.45239 617.14789 4278649601
250.13326 -126.50759 617.29181 4278584065
250.46899 -126.51598 617.40363 4278452737
250.94281 -126.5548 617.53473 4278387200
251.26559 -126.55247 617.61353 4278321408
251.71951 -126.58955 617.69543 4278255872
252.04317 -126.59158 617.776 4278255616
187.06636 -124.28299 609.59137 4280356356
187.79941 -124.26549 609.58209 4280028932
188.93283 -124.15138 608.89233 4279766788
196.63481 -124.63991 611.10315 4280160772
197.33524 -124.64515 611.10272 4280094981
198.07152 -124.64395 611.12976 4280160773
198.83784 -124.66069 611.245 4280291845
199.5867 -124.67325 611.33221 4280356612
199.84723 -124.60115 611.33936 4280356100
200.29675 -124.68732 611.35992 4280290820
200.54973 -124.60194 611.34271 4280290564
200.99178 -124.67944 611.34436 4280290563
201.24638 -124.60137 611.32947 4280159235
201.68701 -124.68773 611.32642 4280094211
201.95078 -124.61165 611.34021 4280290563
202.39755 -124.69625 611.35565 4280356355
202.66579 -124.62064 611.38275 4280487427
203.12097 -124.7099 611.42334 4280618499
203.38702 -124.63809 611.44385 4280618499
203.83392 -124.72474 611.4585 4280553219
204.09778 -124.65167 611.47388 4280684291
204.53084 -124.72605 611.44781 4280619012
204.79114 -124.64772 611.45166 4280750084
205.23099 -124.72688 611.44531 4280619268
205.49176 -124.65538 611.45068 4280881669
205.93504 -124.73479 611.45447 4280816132
206.2018 -124.66087 611.47693 4280750596
206.65553 -124.74709 611.51007 4280619524
206.92812 -124.6779 611.55023 4280815877
207.38203 -124.76614 611.58466 4280815621
207.64993 -124.69817 611.60889 4280487941
208.1017 -124.78536 611.63763 4280028676
208.36931 -124.7113 611.65985 4280028677
208.81746 -124.79668 611.67932 4280028933
209.07816 -124.71918 611.68097 4280160261
209.52495 -124.80334 611.69635 4280291333
209.78574 -124.72578 611.69806 4280160261
210.23196 -124.80994 611.71161 4280291591
210.4948 -124.73483 611.71899 4280160263
210.94333 -124.82031 611.73816 4279963654
211.20874 -124.74529 611.7536 4280094983
211.65779 -124.83137 611.77362 4280225800
211.92484 -124.75937 611.79388 4280028935
212.3746 -124.84286 611.81573 4279635462
212.64032 -124.76782 611.83331 4279766791
213.08708 -124.85172 611.84607 4279767046
213.35243 -124.7802 611.86249 4279832839
213.79842 -124.86039 611.87225 4279898631
214.06363 -124.78817 611.88843 4280030215
214.51122 -124.8709 611.90155 4280095751
214.77853 -124.79933 611.92279 4280226823
215.22911 -124.8833 611.94507 4280423687
215.49826 -124.81398 611.97058 4280620295
215.9505 -124.89977 611.99738 4280816903
216.22214 -124.82883 612.02966 4280751366
216.67746 -124.91663 612.06525 4280816903
216.94966 -124.84591 612.09985 4280882697
217.40509 -124.93363 612.13531 4280751625
217.67688 -124.86489 612.16907 4280686344
218.13126 -124.95202 612.20135 4280620296
218.40051 -124.88288 612.22668 4280357896
218.85187 -124.96648 612.24976 4280161031
219.11865 -124.89175 612.26843 4280029960
219.56931 -124.97641 612.28815 4279964168
219.83742 -124.9064 612.3103 4279898632
220.29074 -124.99145 612.33691 4279832840
220.56117 -124.92035 612.367 4279767303
221.01698 -125.0073 612.40112 4279898119
221.29015 -124.93829 612.43738 4279832583
221.74664 -125.02699 612.47296 4279898119
222.02034 -124.95943 612.51056 4279832839
222.47504 -125.04423 612.54126 4279832839
222.74704 -124.97395 612.57373 4279898375
223.20216 -125.06138 612.60376 4280029447
223.47305 -124.99134 612.63385 4279832582
223.92796 -125.07551 612.66351 4279898119
224.19792 -125.00416 612.69116 4279898375
224.65331 -125.09123 612.72131 4279963655
224.92511 -125.02528 612.75366 4279766790
225.38127 -125.11128 612.78595 4279701253
225.65428 -125.04061 612.82129 4279898375
226.1133 -125.12655 612.86133 4280160776
226.3876 -125.06038 612.89941 4280095495
226.85033 -125.1517 612.94995 4279963909
227.12592 -125.08346 612.99042 4280029445
227.58842 -125.17125 613.03827 4280094725
227.86423 -125.10579 613.08087 4279897861
228.32683 -125.19387 613.12732 4279766533
228.60204 -125.1273 613.16913 4279832070
229.06233 -125.21301 613.2085 4279766278
229.33495 -125.14732 613.24365 4279831814
229.79521 -125.2311 613.28186 4279831813
230.06903 -125.16422 613.3208 4279766277
230.52971 -125.25065 613.3598 4279635205
230.80348 -125.1862 613.39862 4279700741
231.26659 -125.27334 613.44214 4279766276
231.54393 -125.20963 613.49078 4279831811
232.01019 -125.29604 613.54395 4279832067
232.2881 -125.23301 613.59271 4279831811
232.75409 -125.32111 613.64429 4279897347
233.03288 -125.25925 613.69519 4279831555
233.49846 -125.34621 613.74536 4279766019
233.77591 -125.28286 613.79297 4279700227
234.23943 -125.36832 613.83667 4279634947
234.51405 -125.3023 613.87665 4279634691
234.97758 -125.38724 613.92108 4279700483
235.25316 -125.32315 613.96234 4279634947
235.71864 -125.41019 614.01062 4279569155
235.99701 -125.34837 614.05957 4279503619
236.46754 -125.43568 614.11926 4279437827
236.74971 -125.37646 614.17914 4279437828
237.22441 -125.46555 614.2478 4279437827
237.50717 -125.40856 614.31018 4279372035
237.98094 -125.49647 614.37659 4279306499
238.2628 -125.43735 614.43573 4279306499
238.73293 -125.52319 614.49243 4279240963
239.01216 -125.46226 614.54425 4279372035
239.48079 -125.54508 614.59589 4279372291
239.75848 -125.48368 614.64441 4279372291
240.22697 -125.5704 614.69434 4279306755
240.505 -125.51199 614.74396 4279372291
240.97369 -125.59711 614.79395 4279372035
241.25383 -125.53806 614.84894 4279372035
241.72484 -125.62182 614.90454 4279306243
242.00789 -125.56352 614.96619 4279306499
242.47539 -125.64743 615.01257 4279372035
242.76036 -125.59137 615.0791 4279306243
243.23003 -125.67665 615.13025 4279240707
243.51457 -125.61877 615.19525 4279371779
243.98911 -125.70473 615.258 4279437315
244.27061 -125.64727 615.31543 4279371778
244.74828 -125.73405 615.38617 4279371778
245.03731 -125.67958 615.46118 4279371778
245.51715 -125.76991 615.53632 4279372035
245.81302 -125.71983 615.62878 4279371779
246.30005 -125.81017 615.72034 4279306242
246.6031 -125.76368 615.83112 4279306243
247.1051 -125.86267 615.95801 4279306243
247.41682 -125.82286 616.09119 4279240451
247.93779 -125.93124 616.26355 4279174659
248.25729 -125.89324 616.41577 4279109123
248.79253 -126.00514 616.6228 4279043587
249.11407 -125.96801 616.77899 4278977795
249.64153 -126.07774 616.96527 4278912259
249.95448 -126.0388 617.09985 4278846723
250.47151 -126.14367 617.25946 4278780930
250.7856 -126.11332 617.39459 4278715138
251.31503 -126.22836 617.58435 4278518274
251.60876 -126.16782 617.66919 4278518273
252.11368 -126.2608 617.79919 4278386945
252.41068 -126.21122 617.89117 4278321409
187.50905 -123.96415 609.80066 4280094212
188.88402 -123.78437 609.00861 4279635461
191.41449 -124.06622 610.33777 4279833352
191.82848 -124.10025 610.27966 4279964426
192.10878 -124.06873 610.33032 4280030217
196.06711 -124.31259 611.45282 4280292616
196.78775 -124.33295 611.51935 4280161287
197.18968 -124.42261 611.73572 4280160776
197.47971 -124.33021 611.4975 4280226312
197.85201 -124.37045 611.51923 4280094983
198.16797 -124.32784 611.4563 4280095238
198.52914 -124.32089 611.32831 4280160774
198.83778 -124.30426 611.36627 4280226312
199.23656 -124.32589 611.34473 4280291335
199.54781 -124.32255 611.39093 4280159750
199.97211 -124.35345 611.44983 4280028421
200.27461 -124.33839 611.4715 4280093957
200.68465 -124.36451 611.48474 4280225028
200.98209 -124.34792 611.49164 4280159493
201.38193 -124.36273 611.47418 4280028163
201.67859 -124.34569 611.47314 4280028163
202.08685 -124.37325 611.49036 4280093954
202.38924 -124.35682 611.50665 4280159235
202.80458 -124.38535 611.53961 4280093697
203.11194 -124.37424 611.57727 4280158981
203.52533 -124.40268 611.59894 4280224770
203.82162 -124.38751 611.60468 4280356099
204.23581 -124.4109 611.61969 4280552963
204.51468 -124.38457 611.57996 4280290309
204.90833 -124.40768 611.57825 4280290562
205.21111 -124.38145 611.56561 4280421891
205.59813 -124.41481 611.56769 4280618754
205.91205 -124.38967 611.56476 4280487939
206.32939 -124.41769 611.59302 4280685059
206.63271 -124.4008 611.62207 4280684804
207.0582 -124.43298 611.67377 4280750084
207.36618 -124.42583 611.71643 4280750084
207.75948 -124.46257 611.74854 4280553477
208.09187 -124.44669 611.78723 4280422149
208.50301 -124.47577 611.81769 4280422149
208.81407 -124.46223 611.84619 4280488197
209.22908 -124.48619 611.86365 4280684549
209.53004 -124.47321 611.88818 4280619526
209.94017 -124.49538 611.89154 4280684806
210.24142 -124.48258 611.91504 4280619527
210.65227 -124.50494 611.92133 4280356871
210.95506 -124.49397 611.94983 4280225798
211.36897 -124.51891 611.96436 4280357127
211.6671 -124.50438 611.97693 4280291848
212.08308 -124.52976 611.99841 4279963398
212.38324 -124.51401 612.0163 4279700996
212.7971 -124.53917 612.03345 4279635718
213.09412 -124.52383 612.0412 4279766789
213.50641 -124.54802 612.05365 4279701509
213.80182 -124.53029 612.05798 4279701509
214.21513 -124.55377 612.07013 4279833094
214.5098 -124.53668 612.07416 4279898630
214.92575 -124.56128 612.09149 4279833093
215.2234 -124.54742 612.10431 4279964165
215.64185 -124.5753 612.12872 4280095494
215.94032 -124.56084 612.14417 4280291845
216.36191 -124.58713 612.17706 4280357638
216.66393 -124.57424 612.20355 4280423175
217.08788 -124.60435 612.242 4280423431
217.38951 -124.59215 612.26862 4280423687
217.81406 -124.6219 612.30664 4280423431
218.11536 -124.61066 612.33142 4280423688
218.53583 -124.63734 612.35968 4280292103
218.834 -124.62201 612.37488 4280226569
219.25105 -124.64643 612.39325 4280029703
219.54863 -124.63263 612.40558 4279832839
219.96751 -124.65862 612.42743 4279767561
220.26634 -124.64355 612.44543 4279767303
220.68866 -124.67243 612.47528 4279898376
220.98955 -124.66077 612.50024 4279963912
221.41467 -124.686 612.53729 4279963655
221.71568 -124.67434 612.56293 4279963912
222.14088 -124.70565 612.60095 4279898376
222.44075 -124.69318 612.62201 4279832839
222.86382 -124.72019 612.65411 4279963912
223.1635 -124.70615 612.67474 4280029704
223.58592 -124.73264 612.703 4279963912
223.88437 -124.71891 612.72321 4279898631
224.30806 -124.74562 612.75043 4279964168
224.60608 -124.73372 612.77161 4279898376
225.03242 -124.7627 612.8056 4279832583
225.33208 -124.75143 612.82947 4279832582
225.75914 -124.7791 612.86798 4279963912
226.06194 -124.76631 612.89874 4280095496
226.48947 -124.79581 612.93848 4280161288
226.79544 -124.78783 612.97809 4280095494
227.22408 -124.81718 613.02008 4280095238
227.5285 -124.80717 613.05621 4280160774
227.95923 -124.83685 613.09906 4280094984
228.26292 -124.82629 613.13409 4280029191
228.69281 -124.85705 613.17719 4279963399
228.99486 -124.84712 613.20605 4279963399
229.42177 -124.87372 613.24036 4279963399
229.72404 -124.86026 613.26886 4279963398
230.15161 -124.88879 613.30627 4279963655
230.45383 -124.87865 613.33533 4279897861
230.88229 -124.90795 613.37372 4279897862
231.18674 -124.89761 613.40839 4280028933
231.62007 -124.92816 613.45929 4280094725
231.92752 -124.92194 613.50354 4280029188
232.36174 -124.95347 613.5556 4280094468
232.66934 -124.94514 613.59918 4280160005
233.10493 -124.97588 613.65247 4280160004
233.41084 -124.9679 613.69312 4280094469
233.84439 -124.99713 613.73981 4279897605
234.14755 -124.9883 613.77362 4279831811
234.57889 -125.01482 613.81415 4279831812
234.88269 -125.00587 613.84833 4279963142
235.31429 -125.03298 613.88898 4279963398
235.61902 -125.02411 613.92651 4279832069
236.05388 -125.05402 613.97534 4279700484
236.3627 -125.04884 614.02258 4279634948
236.80228 -125.08179 614.08282 4279569156
237.11356 -125.07485 614.13635 4279569156
237.55484 -125.10768 614.20056 4279569156
237.86656 -125.10376 614.25476 4279437827
238.30641 -125.13673 614.3158 4279372291
238.61551 -125.12788 614.36237 4279437827
239.0522 -125.15804 614.41571 4279503619
239.35938 -125.15057 614.45917 4279503620
239.79517 -125.1815 614.50848 4279503620
240.10158 -125.17471 614.5498 4279569412
240.53772 -125.20529 614.59839 4279634692
240.84485 -125.1978 614.64032 4279634693
241.28331 -125.2271 614.69434 4279568900
241.59213 -125.21918 614.73993 4279503363
242.03375 -125.25213 614.80182 4279437827
242.34377 -125.24686 614.85095 4279503363
242.78938 -125.28108 614.92145 4279437827
243.10127 -125.27696 614.97797 4279372035
243.54826 -125.31015 615.05115 4279503363
243.86267 -125.30769 615.11444 4279568899
244.31149 -125.34203 615.19006 4279634435
244.62775 -125.34153 615.25909 4279568899
245.08141 -125.37743 615.3446 4279568899
245.39981 -125.37907 615.41931 4279568899
245.86006 -125.41674 615.51862 4279503363
246.18315 -125.41983 615.60553 4279503363
246.65097 -125.45998 615.72308 4279503107
246.98248 -125.46576 615.82959 4279503108
247.45795 -125.51448 615.96454 4279437315
247.79933 -125.52943 616.0946 4279371779
248.28308 -125.57711 616.25055 4279305987
248.63272 -125.59061 616.39941 4279240451
249.12375 -125.64374 616.57373 4279174915
249.47693 -125.66328 616.7298 4279109123
249.96857 -125.71845 616.90546 4279109123
250.32458 -125.73666 617.06738 4279043587
250.81752 -125.78889 617.24567 4278977795
251.18593 -125.81286 617.43756 4278846466
251.69035 -125.87531 617.64258 4278780930
252.07767 -125.91084 617.87964 4278649602
252.55411 -125.96349 618.01483 4278518273
252.90089 -125.96684 618.15155 4278386944
253.36559 -126.00611 618.25702 4278321408
188.00287 -123.81671 610.38281 4279897606
204.02533 -129.76823 639.79852 4279570183
198.15549 -124.02007 611.45605 4280095240
198.92601 -124.1137 611.58264 4280226057
199.69421 -124.12396 611.68011 4280028679
199.95306 -124.05958 611.68579 4279963399
200.40411 -124.12723 611.70795 4279832070
200.6546 -123.97662 611.68665 4280028934
201.09804 -124.11925 611.68573 4279962886
201.35114 -123.97688 611.67035 4279962886
201.7921 -124.06225 611.66504 4279897349
202.05525 -123.98796 611.67926 4279962884
202.50186 -124.06757 611.69189 4280028420
202.76985 -123.98799 611.71924 4280028164
203.22424 -124.07835 611.75598 4279962627
203.48878 -124.00955 611.77167 4280093700
203.92868 -124.08885 611.76459 4280093699
204.19235 -124.01346 611.77875 4280225028
204.61772 -124.08677 611.72687 4280093955
204.8759 -124.00528 611.72552 4280225027
205.31204 -124.08277 611.70587 4280356355
205.57013 -124.01398 611.7038 4280356611
206.01089 -124.0871 611.69684 4280422403
206.27739 -124.00467 611.72156 4280422403
206.72989 -124.09491 611.75098 4280553475
207.00504 -124.02926 611.79797 4280487683
207.46318 -124.1266 611.8479 4280750083
207.73354 -124.06076 611.87567 4280291075
208.19034 -124.14801 611.9223 4280356610
208.46103 -124.07338 611.95117 4280291075
208.91452 -124.15766 611.9845 4280487939
209.18156 -124.08801 612.00519 4280356866
209.63458 -124.17542 612.03473 4280619011
209.89412 -124.09512 612.03571 4280422404
210.34639 -124.18191 612.06415 4280619012
210.61078 -124.10686 612.07782 4280291332
211.07034 -124.20118 612.12646 4280356868
211.33846 -124.12841 612.15106 4280160260
211.78712 -124.21213 612.16669 4280291333
212.05693 -124.14227 612.19702 4279963397
212.50728 -124.22639 612.21832 4279766532
212.77377 -124.15269 612.23792 4279766789
213.21431 -124.23325 612.23151 4279897862
213.47571 -124.15742 612.23553 4279766790
213.9153 -124.23528 612.22662 4279635717
214.18086 -124.15943 612.24231 4279701509
214.62529 -124.24151 612.24561 4279832838
214.8918 -124.1703 612.2655 4279832581
215.34187 -124.25419 612.28412 4279767045
215.61127 -124.18343 612.31238 4279963909
216.06142 -124.26766 612.33081 4280029190
216.33319 -124.19604 612.36584 4280094726
216.78725 -124.28319 612.39453 4280029445
217.05724 -124.21446 612.4248 4280029446
217.51128 -124.29958 612.45361 4280095494
217.78122 -124.22848 612.48273 4280095238
218.23378 -124.31508 612.50836 4280160774
218.50089 -124.24359 612.52844 4279963910
218.94962 -124.32681 612.54279 4279963910
219.2139 -124.25136 612.55475 4279832838
219.66144 -124.33422 612.56433 4279701766
219.92674 -124.26246 612.58044 4279701767
220.37764 -124.34513 612.59821 4279701510
220.64502 -124.27398 612.62103 4279701510
221.09906 -124.35904 612.64789 4279767046
221.36864 -124.28698 612.67609 4279767046
221.82239 -124.37273 612.70361 4279832583
222.09381 -124.30488 612.73456 4279767046
222.54558 -124.39017 612.75598 4279767046
222.81461 -124.31834 612.78094 4279767302
223.26627 -124.40013 612.80084 4280029447
223.53316 -124.32687 612.82025 4279898375
223.98526 -124.41277 612.8399 4279832839
224.25064 -124.34147 612.85651 4279767303
224.70303 -124.42412 612.87775 4279832582
224.97189 -124.35435 612.90234 4279767046
225.4254 -124.4408 612.92767 4279832582
225.69695 -124.3699 612.95819 4279963911
226.15337 -124.45284 612.99152 4280029447
226.42493 -124.38367 613.02148 4280095239
226.8851 -124.47477 613.06396 4280160774
227.1562 -124.40494 613.09314 4280095238
227.61433 -124.49142 613.12958 4280226055
227.88506 -124.42115 613.15796 4280291848
228.34251 -124.50638 613.19226 4280160263
228.61438 -124.43896 613.22321 4280029191
229.06909 -124.52528 613.25165 4280094727
229.33919 -124.45392 613.27588 4280094984
229.79506 -124.53775 613.30676 4280160519
230.06638 -124.46642 613.33466 4280094982
230.52275 -124.55339 613.36621 4280226054
230.79411 -124.48512 613.39465 4280226054
231.25323 -124.57199 613.43152 4280291333
231.52911 -124.5042 613.47229 4280226309
231.99113 -124.59297 613.51831 4280226309
232.2674 -124.52696 613.5589 4280291589
232.72986 -124.61527 613.60608 4280357125
233.0071 -124.54882 613.64819 4280226053
233.46776 -124.63573 613.69006 4280291590
233.74225 -124.56734 613.72546 4280160262
234.19977 -124.65417 613.75806 4280094469
234.47256 -124.58572 613.78882 4280094470
234.92966 -124.66889 613.82104 4280029190
235.20244 -124.59856 613.85071 4280094982
235.66179 -124.68481 613.88776 4279963654
235.93748 -124.6184 613.92529 4279832069
236.40202 -124.7066 613.97418 4279766533
236.68123 -124.64429 614.02203 4279766277
237.14935 -124.73192 614.07831 4279700740
237.42979 -124.6689 614.13068 4279635204
237.8985 -124.75813 614.18835 4279635204
238.17818 -124.69715 614.23773 4279634948
238.64308 -124.78204 614.28595 4279634948
238.92049 -124.71654 614.32886 4279569668
239.38409 -124.80061 614.37286 4279700740
239.66011 -124.73611 614.41235 4279766277
240.12318 -124.82187 614.45398 4279766533
240.39847 -124.75772 614.49188 4279766276
240.86296 -124.84378 614.5365 4279831557
241.14075 -124.78004 614.58069 4279766021
241.60696 -124.86506 614.62952 4279634948
241.888 -124.80331 614.68164 4279569156
242.35677 -124.89078 614.73608 4279634692
242.64107 -124.83305 614.79688 4279569156
243.11382 -124.92214 614.86078 4279503619
243.39847 -124.8599 614.92224 4279634691
243.87378 -124.94888 614.99115 4279765763
244.15883 -124.89152 615.05402 4279700227
244.63564 -124.9821 615.12646 4279831299
244.92337 -124.92354 615.19525 4279765763
245.40234 -125.01406 615.27234 4279765763
245.69467 -124.9588 615.35248 4279700227
246.18005 -125.05242 615.44427 4279765764
246.47823 -124.99889 615.53955 4279634435
246.97343 -125.09601 615.65363 4279699972
247.27721 -125.05042 615.76331 4279634180
247.78273 -125.15364 615.90112 4279568643
248.09346 -125.1096 616.02875 4279502851
248.60765 -125.21242 616.18616 4279371779
248.92403 -125.17174 616.32843 4279306243
249.44888 -125.28098 616.50958 4279240451
249.77112 -125.24657 616.66687 4279240451
250.30727 -125.35952 616.87433 4279240451
250.63913 -125.33027 617.05426 4279109123
251.19284 -125.45349 617.30371 4279043587
251.53152 -125.42323 617.49951 4278978051
252.10371 -125.5545 617.79315 4278912259
252.44783 -125.53223 618.00098 4278780930
252.99252 -125.6608 618.22437 4278649602
253.29549 -125.59975 618.33307 4278518273
253.82658 -125.70992 618.52271 4278386945
187.72517 -123.52846 610.66199 4279766792
200.3882 -123.71555 611.83539 4279635717
201.08794 -123.71894 611.83325 4279701255
203.23943 -123.75957 611.9754 4279963143
203.92232 -123.75271 611.91901 4280094471
204.33247 -123.77254 611.92059 4280225287
204.59621 -123.74323 611.83624 4280291079
204.96101 -123.77295 611.8324 4280290822
205.28682 -123.73338 611.80731 4280356870
205.62805 -123.78033 611.7973 4280422149
205.97983 -123.73832 611.78424 4280488198
206.71422 -123.75375 611.88165 4280356869
207.47038 -123.79855 612.04224 4280291076
207.80316 -123.84254 612.04926 4280225539
208.19041 -123.81083 612.0976 4280159748
208.57326 -123.83778 612.09753 4280159748
208.90192 -123.82206 612.12817 4280225284
209.31845 -123.84592 612.14612 4280225282
209.61864 -123.83114 612.17175 4280291077
210.02911 -123.85164 612.17084 4280225284
210.32887 -123.84074 612.19434 4280159748
210.74432 -123.8637 612.20715 4280159747
211.05168 -123.85625 612.25311 4280225541
211.47212 -123.88374 612.28278 4280159748
211.77026 -123.86921 612.29431 4280028676
212.19365 -123.89806 612.33148 4279832068
212.49323 -123.88632 612.35248 4279832068
212.90808 -123.91276 612.37488 4279897605
213.20071 -123.89216 612.36664 4279963398
213.60881 -123.91795 612.36694 4279897605
213.89861 -123.89268 612.3537 4279700997
214.31186 -123.9127 612.36749 4279700996
214.60526 -123.89849 612.36536 4279766789
215.02164 -123.92315 612.38342 4279700997
215.31958 -123.90917 612.39709 4279766789
215.74075 -123.93683 612.42847 4279898117
216.03899 -123.92031 612.44177 4279897862
216.46204 -123.94971 612.48053 4279766532
216.76933 -123.94031 612.51813 4279700996
217.19672 -123.97159 612.5686 4279701252
217.50464 -123.95986 612.6084 4279701253
217.933 -123.99275 612.66113 4279701253
218.23959 -123.98255 612.69635 4279766789
218.66238 -124.01196 612.73181 4279701509
218.96155 -123.99782 612.74805 4279635717
219.37453 -124.01939 612.75549 4279570438
219.6662 -124.00084 612.74976 4279504645
220.08121 -124.02522 612.76099 4279570182
220.3775 -124.01172 612.77106 4279570182
220.79634 -124.03583 612.79163 4279570182
221.09634 -124.02154 612.81262 4279504389
221.51982 -124.04664 612.84528 4279504646
221.81976 -124.03474 612.86639 4279570182
222.24522 -124.06469 612.90588 4279504390
222.54396 -124.05182 612.92145 4279504389
222.96425 -124.07774 612.94653 4279570181
223.26204 -124.06404 612.96014 4279635718
223.67984 -124.0877 612.97748 4279570182
223.9774 -124.07253 612.99133 4279570181
224.39484 -124.09713 613.00629 4279570182
224.6917 -124.08308 613.02026 4279635461
225.11234 -124.11205 613.04443 4279635718
225.41171 -124.1002 613.06262 4279701510
225.83479 -124.12487 613.09491 4279767047
226.1364 -124.10858 613.12042 4279898118
226.56046 -124.13808 613.15125 4279963654
226.86418 -124.13128 613.18481 4280094982
227.28897 -124.15769 613.21417 4280160518
227.58916 -124.14465 613.24109 4280160775
228.01506 -124.16918 613.26794 4280226056
228.31367 -124.15799 613.29205 4280094984
228.73975 -124.18682 613.32227 4280029448
229.0374 -124.17458 613.34094 4280029447
229.46036 -124.19862 613.3634 4280094984
229.75896 -124.1851 613.38519 4280160519
230.18312 -124.21001 613.41138 4280226055
230.48262 -124.19839 613.43475 4280357383
230.90817 -124.22624 613.46381 4280422663
231.20999 -124.21536 613.49304 4280423175
231.64127 -124.24459 613.53748 4280488966
231.94589 -124.23515 613.57465 4280292357
232.37756 -124.26542 613.6192 4280357638
232.68257 -124.25642 613.65765 4280357638
233.11464 -124.28587 613.7016 4280292102
233.41675 -124.27401 613.73273 4280226310
233.84508 -124.30186 613.76666 4280291847
234.14462 -124.29137 613.789 4280357384
234.57112 -124.31895 613.81927 4280226056
234.87088 -124.30433 613.84106 4280094983
235.29732 -124.32905 613.87012 4280160776
235.59837 -124.31825 613.89722 4280029447
236.0291 -124.34776 613.9361 4279963654
236.33359 -124.33933 613.97369 4279963654
236.76912 -124.37039 614.02246 4279898119
237.07556 -124.36155 614.06506 4279898118
237.5132 -124.39149 614.11884 4279898118
237.82034 -124.38407 614.16254 4279832326
238.25616 -124.41624 614.21179 4279832326
238.56076 -124.40604 614.24762 4279832325
238.99374 -124.43423 614.29071 4279832325
239.29684 -124.42278 614.32452 4279832325
239.72932 -124.4521 614.3645 4279832325
240.03177 -124.44402 614.39624 4279897862
240.46436 -124.47284 614.43573 4279963397
240.76855 -124.46214 614.47107 4279963398
241.20326 -124.49008 614.51556 4279897605
241.50905 -124.48104 614.55359 4279766532
241.94669 -124.51262 614.60614 4279766276
242.25482 -124.50595 614.6507 4279766276
242.69788 -124.53889 614.71478 4279700740
243.0085 -124.53403 614.76862 4279700484
243.45314 -124.56672 614.83612 4279766020
243.76587 -124.56261 614.89581 4279897348
244.21249 -124.59631 614.96564 4279962883
244.52609 -124.59484 615.02814 4279962884
244.97491 -124.62767 615.1015 4279897092
245.2888 -124.62502 615.16553 4279897091
245.74268 -124.65966 615.24896 4279897092
246.06079 -124.6608 615.32379 4279896836
246.52132 -124.69855 615.42285 4279831044
246.84616 -124.70134 615.51489 4279831044
247.31424 -124.74351 615.62994 4279831044
247.64703 -124.75319 615.74152 4279765508
248.1243 -124.79844 615.8783 4279699972
248.46399 -124.80926 616.00659 4279568643
248.94957 -124.85646 616.16302 4279503107
249.299 -124.8745 616.31439 4279437315
249.79396 -124.92781 616.49457 4279371779
250.15607 -124.95093 616.6748 4279305987
250.66548 -125.01105 616.89105 4279240451
251.0437 -125.04077 617.1095 4279174915
251.56941 -125.11258 617.36493 4279174659
251.96556 -125.15343 617.62433 4279109123
252.50021 -125.22737 617.90186 4279043331
252.91269 -125.2714 618.20007 4278912259
253.44476 -125.34503 618.46936 4278780930
253.84488 -125.39371 618.7359 4278649602
254.34154 -125.43851 618.91925 4278452737
254.70567 -125.45956 619.0965 4278321408
208.60384 -123.4624 612.39294 4280160005
209.30899 -123.4712 612.3999 4280094213
210.00516 -123.46564 612.38098 4280028677
210.44649 -123.54817 612.37378 4279766532
210.70869 -123.46693 612.38367 4279897604
211.16064 -123.55827 612.40662 4279963140
211.42804 -123.48825 612.43213 4279897604
211.8741 -123.56796 612.43683 4279766532
212.1438 -123.49551 612.46942 4279700740
212.5957 -123.58405 612.49384 4279700996
212.86171 -123.51458 612.51263 4279700996
213.30212 -123.58997 612.50403 4279766532
213.56117 -123.51168 612.50232 4279635461
214.00026 -123.59331 612.48932 4279569924
214.26402 -123.5175 612.50171 4279504132
214.70831 -123.59396 612.50024 4279504132
214.97116 -123.52182 612.51349 4279504133
215.42195 -123.60534 612.53027 4279504388
215.68871 -123.53472 612.55438 4279569924
216.13823 -123.61809 612.56738 4279635460
216.40752 -123.54405 612.59814 4279504132
216.86865 -123.63436 612.64362 4279438596
217.14784 -123.57301 612.70178 4279438597
217.6131 -123.66096 612.75848 4279373317
217.89528 -123.59792 612.82465 4279438597
218.35951 -123.68768 612.87769 4279373060
218.63391 -123.62289 612.92261 4279438596
219.09254 -123.70889 612.95892 4279373060
219.35669 -123.63873 612.97522 4279373060
219.79791 -123.71352 612.96198 4279373316
220.06282 -123.64301 612.98102 4279373060
220.50792 -123.72114 612.97748 4279373060
220.7746 -123.65234 613.00232 4279307524
221.2234 -123.72897 613.00952 4279307524
221.48943 -123.65909 613.03174 4279373061
221.94394 -123.74229 613.05554 4279373061
222.21606 -123.67751 613.09296 4279372805
222.66934 -123.76027 613.11371 4279307268
222.93919 -123.69217 613.14478 4279438341
223.39066 -123.77207 613.15955 4279504133
223.65726 -123.70156 613.18182 4279438597
224.10861 -123.78179 613.19525 4279373060
224.36911 -123.71075 613.20148 4279438597
224.82059 -123.79176 613.21625 4279504133
225.08528 -123.72273 613.23218 4279569925
225.53859 -123.80733 613.25311 4279570182
225.80672 -123.73457 613.2771 4279701254
226.26117 -123.81564 613.30286 4279766790
226.52911 -123.74493 613.3244 4279832069
226.98685 -123.83368 613.35834 4279897605
227.25333 -123.76328 613.37604 4280028934
227.70709 -123.84498 613.39923 4279963654
227.97281 -123.77063 613.41479 4279898118
228.42603 -123.85468 613.43494 4279898117
228.69344 -123.78619 613.45593 4279898118
229.14391 -123.8702 613.47113 4279963911
229.41002 -123.79717 613.48572 4280029447
229.86284 -123.87809 613.50812 4280029190
230.1313 -123.80597 613.52875 4280094726
230.58553 -123.89173 613.55377 4280226054
230.85503 -123.82217 613.57715 4280291589
231.31198 -123.90646 613.60846 4280422917
231.58607 -123.838 613.64429 4280292100
232.04514 -123.92543 613.68195 4280423173
232.31918 -123.85728 613.71637 4280357637
232.77866 -123.94426 613.75659 4280422917
233.05244 -123.87487 613.78845 4280357382
233.50905 -123.95972 613.81982 4280291846
233.77931 -123.89061 613.84338 4280357383
234.23289 -123.97532 613.86591 4280422919
234.5027 -123.90519 613.88824 4280291847
234.95634 -123.98711 613.91071 4280226311
235.22574 -123.91483 613.93207 4280226311
235.68236 -123.99946 613.96204 4280160775
235.95482 -123.93108 613.99084 4280029446
236.41557 -124.01889 614.03125 4280160775
236.69081 -123.95267 614.0672 4280095239
237.15314 -124.03864 614.11084 4280094983
237.42975 -123.9709 614.151 4280029446
237.89149 -124.05909 614.19391 4280094982
238.16733 -123.99309 614.23035 4279898117
238.62622 -124.07822 614.2663 4279898117
238.90045 -124.0095 614.29773 4279898117
239.35837 -124.09269 614.33148 4280029446
239.63188 -124.02422 614.36029 4279963910
240.08926 -124.11156 614.39172 4280029446
240.36293 -124.04264 614.42114 4280029446
240.82251 -124.12635 614.4574 4280226054
241.09793 -124.05849 614.49213 4280029446
241.55936 -124.14478 614.53253 4279963397
241.83797 -124.07961 614.57471 4279963397
242.30315 -124.16858 614.62408 4279963397
242.58582 -124.10649 614.67682 4279963141
243.05508 -124.19648 614.73669 4279963141
243.33887 -124.13232 614.79156 4279962885
243.8112 -124.22279 614.85742 4279962884
244.09529 -124.16164 614.9137 4280028676
244.56868 -124.25283 614.98187 4280093956
244.85394 -124.18967 615.04077 4280093956
245.3277 -124.28032 615.10889 4280093957
245.61629 -124.21857 615.17627 4280028164
246.09549 -124.31148 615.25616 4279962372
246.38901 -124.2566 615.33655 4279962372
246.87683 -124.353 615.43549 4279962373
247.17485 -124.29775 615.52838 4279962372
247.6721 -124.39751 615.64832 4279962373
247.97731 -124.35221 615.76019 4279831300
248.48245 -124.45496 615.89838 4279765508
248.79419 -124.40813 616.02686 4279699972
249.31012 -124.51325 616.18866 4279699716
249.62946 -124.47465 616.33679 4279503108
250.16045 -124.58564 616.53363 4279437315
250.49149 -124.55183 616.71075 4279371779
251.04332 -124.67131 616.95599 4279306243
251.39021 -124.6488 617.17255 4279305988
251.9668 -124.78381 617.47681 4279240451
252.32898 -124.77064 617.72937 4279174659
252.93367 -124.91782 618.10059 4279043331
253.29605 -124.89727 618.35297 4278912259
253.92628 -125.0563 618.78436 4278846723
254.26796 -125.04494 618.98279 4278715394
254.82603 -125.15054 619.24005 4278518274
255.15814 -125.11866 619.41388 4278386945
140.10396 -129.89731 647.66949 4279900697
140.42911 -129.87173 647.64441 4279967002
140.83788 -129.89595 647.66016 4280032798
141.16794 -129.87886 647.65759 4279770393
141.57695 -129.90187 647.67267 4279704602
141.90756 -129.88908 647.67279 4279769881
142.31624 -129.91444 647.68579 4279704090
142.6461 -129.89511 647.68378 4279638551
143.05299 -129.91537 647.68823 4279638552
143.3822 -129.89543 647.68463 4279572758
143.78941 -129.91629 647.69153 4279638552
144.11749 -129.89542 647.68091 4279638294
144.52565 -129.91872 647.69214 4279769368
144.85541 -129.90002 647.68201 4279703831
145.2657 -129.92784 647.70801 4279703832
145.59917 -129.91333 647.71045 4279506452
146.00513 -129.93292 647.71722 4279440916
146.3382 -129.91493 647.71948 4279440659
146.74585 -129.93349 647.73334 4279375379
147.48627 -129.95218 647.74878 4279178513
148.22504 -129.94868 647.75543 4279112464
148.97002 -129.95714 647.79242 4279309585
149.71754 -129.96594 647.83539 4279178001
150.46158 -129.99203 647.86414 4279177745
151.21407 -129.98973 647.92596 4279046670
151.95836 -130.00412 647.95715 4278915083
164.81216 -130.3159 649.26508 4278387715
211.8877 -123.24277 612.65082 4279701255
212.30612 -123.26618 612.66492 4279635463
212.59624 -123.25649 612.66718 4279635719
213.30014 -123.25274 612.67029 4279635719
214.00063 -123.25614 612.66156 4279504390
214.70381 -123.2648 612.66199 4279307269
215.41669 -123.26952 612.69043 4279373061
215.82803 -123.29101 612.69592 4279438596
216.12701 -123.2701 612.70691 4279438597
216.53943 -123.30089 612.72101 4279372804
216.85197 -123.29739 612.76447 4279307269
217.28343 -123.32884 612.83258 4279307524
217.59868 -123.31216 612.88397 4279307525
218.03387 -123.35211 612.96466 4279307524
218.34637 -123.3456 613.01288 4279307268
218.776 -123.37751 613.06573 4279307524
219.08069 -123.36555 613.09821 4279307268
219.49835 -123.3883 613.1156 4279307268
219.78101 -123.3703 613.08691 4279307268
220.19882 -123.39288 613.1062 4279307268
220.48816 -123.3736 613.0946 4279241476
220.90715 -123.4021 613.11981 4279241475
221.20193 -123.38318 613.12073 4279241476
221.62334 -123.40671 613.14648 4279241475
221.92253 -123.3942 613.16656 4279175940
222.35864 -123.4237 613.23145 4279241476
222.66275 -123.4206 613.2652 4279241476
223.09322 -123.45284 613.32074 4279241475
223.3985 -123.44041 613.35101 4279307012
223.82542 -123.4698 613.3941 4279307011
224.12865 -123.4578 613.4201 4279307012
224.54672 -123.4829 613.43768 4279372804
224.84279 -123.47025 613.44867 4279438341
225.25879 -123.49349 613.45929 4279438596
225.55661 -123.48098 613.47498 4279438596
225.97675 -123.50346 613.49585 4279504133
226.27484 -123.49095 613.5144 4279635205
226.69502 -123.51418 613.53326 4279700741
226.99704 -123.50504 613.56067 4279832070
227.41644 -123.52991 613.57666 4279832069
227.71414 -123.51653 613.5943 4279766533
228.13373 -123.53649 613.60675 4279701253
228.42863 -123.52168 613.62006 4279635460
228.85049 -123.54789 613.63831 4279635717
229.14308 -123.5359 613.64557 4279766789
229.56285 -123.55779 613.65668 4279832326
229.85741 -123.54251 613.67053 4279832325
230.28038 -123.56552 613.68976 4279832325
230.57753 -123.55463 613.7077 4280029189
231.00256 -123.57983 613.73273 4280094725
231.30212 -123.56634 613.75745 4280160516
231.73238 -123.59592 613.79657 4280160516
232.03325 -123.58668 613.82562 4280226309
232.46339 -123.61318 613.8634 4280291845
232.76447 -123.60138 613.89471 4280226310
233.19319 -123.62933 613.92694 4280226054
233.49039 -123.61784 613.94757 4280160518
233.91457 -123.64168 613.96881 4280160518
234.21059 -123.62818 613.98291 4280226054
234.63406 -123.65414 614.00385 4280226311
234.93095 -123.64078 614.01892 4280160775
235.3544 -123.66469 614.03973 4280160775
235.6544 -123.65245 614.06281 4280095239
236.08165 -123.67781 614.09344 4280029447
236.38406 -123.66659 614.12476 4280029704
236.81436 -123.6962 614.16132 4280029448
237.11703 -123.68712 614.19373 4280029703
237.54858 -123.71411 614.23309 4280095239
237.85062 -123.70382 614.26324 4280029703
238.28035 -123.73183 614.29718 4279963911
238.58003 -123.71931 614.32098 4279898374
239.00874 -123.74574 614.35089 4279898375
239.30702 -123.73392 614.37329 4279964167
239.73593 -123.75951 614.40131 4280029703
240.03346 -123.74786 614.42267 4279964167
240.46365 -123.77351 614.45343 4280029447
240.76373 -123.76112 614.48065 4280095239
241.19502 -123.78869 614.51581 4280094983
241.49689 -123.77934 614.54559 4280094983
241.93106 -123.808 614.58905 4280160519
242.23599 -123.79961 614.62708 4280094982
242.67554 -123.83157 614.68243 4280160262
242.98376 -123.82487 614.72949 4280160262
243.42491 -123.85701 614.78882 4280094469
243.73669 -123.85178 614.84399 4280160005
244.17958 -123.88452 614.90625 4280225797
244.49245 -123.88007 614.96387 4280225541
244.93655 -123.91222 615.02826 4280290821
245.24886 -123.90605 615.08478 4280290821
245.69699 -123.93858 615.15814 4280159236
246.01204 -123.93591 615.22314 4280093444
246.46609 -123.97587 615.30865 4280093445
246.78644 -123.97708 615.38898 4280093701
247.24794 -124.01387 615.48798 4280093701
247.57437 -124.01735 615.58588 4280028165
248.04579 -124.06063 615.70624 4280027909
248.37859 -124.07133 615.82001 4279896837
248.8586 -124.11608 615.961 4279896580
249.20001 -124.12934 616.09497 4279830788
249.69003 -124.1785 616.26025 4279634180
250.04425 -124.19682 616.42328 4279568644
250.54755 -124.25138 616.62183 4279503108
250.91798 -124.27818 616.82269 4279437572
251.44066 -124.34487 617.06848 4279371780
251.83231 -124.38149 617.31873 4279306244
252.37575 -124.45877 617.61652 4279240452
