# .PCD v0.7 - Point Cloud Data file format
VERSION 0.7
FIELDS x y z rgb
SIZE 4 4 4 4
TYPE F F F U
COUNT 1 1 1 1
WIDTH 1148
HEIGHT 1
VIEWPOINT 0 0 0 1 0 0 0
POINTS 1148
DATA ascii
142.78523 -50.894562 822.92419 4282010935
143.33234 -50.976505 822.85925 4282142514
143.68764 -50.88504 822.77454 4281882679
144.21857 -50.967281 822.65137 4283723844
144.56387 -50.874691 822.50421 4283859805
145.07237 -50.948521 822.27039 4287609695
145.41805 -50.851719 822.11975 4291297212
145.93985 -50.933941 821.9856 4294967295
146.30318 -50.844833 821.91888 4294967295
146.85487 -50.931923 821.91101 4294967295
147.24831 -50.848202 821.9707 4294967295
147.82741 -50.943954 822.09637 4290041242
148.22466 -50.861061 822.20227 4283795060
148.7979 -50.949711 822.28558 4284248142
149.1868 -50.865761 822.36145 4282145350
149.75919 -50.954128 822.42474 4283260480
143.80339 -50.520069 822.94293 4281751604
144.19344 -50.525414 822.68451 4283459908
144.6483 -50.499191 822.50891 4282812763
145.04448 -50.509605 822.27966 4287346039
145.49673 -50.481251 822.11395 4290903993
145.91127 -50.492912 821.98749 4294967295
146.39058 -50.468246 821.92041 4294967295
146.81625 -50.495831 821.91156 4294967295
147.33038 -50.475609 821.98248 4294967295
147.78944 -50.506199 822.09985 4290172344
148.31306 -50.487747 822.22546 4283144051
148.76295 -50.512909 822.30402 4283853394
149.2872 -50.488331 822.38586 4281819206
149.72523 -50.517658 822.4505 4283128641
143.34526 -50.055054 822.94928 4281945650
143.69865 -49.964256 822.85669 4281947448
144.22852 -50.043362 822.72595 4283722047
144.57021 -49.94939 822.5589 4283399512
145.07646 -50.025478 822.31189 4287216482
145.41992 -49.93047 822.14813 4289920964
145.94016 -50.01125 822.00543 4294967295
146.30254 -49.92094 821.93359 4294967295
146.85298 -50.006744 821.91809 4294967295
147.24588 -49.92194 821.9754 4294967295
147.82463 -50.016613 822.09906 4290699176
148.22456 -49.935974 822.21967 4283205749
148.79921 -50.025433 822.30963 4284051532
149.18866 -49.941906 822.3894 4282473289
149.76311 -50.03043 822.46216 4283588416
144.20184 -49.6045 822.74988 4283458627
144.65343 -49.576389 822.55499 4282155604
145.04811 -49.584957 822.31763 4286623861
145.49831 -49.55632 822.13904 4289200060
145.91173 -49.56953 822.00665 4294967295
146.38988 -49.544552 821.93359 4294967295
146.81445 -49.571518 821.91913 4294967295
147.32809 -49.5495 821.98712 4294967295
147.78641 -49.578892 822.10004 4290172100
148.31248 -49.561813 822.23907 4283537780
148.7632 -49.58881 822.32288 4283590223
149.28802 -49.563499 822.4068 4281686598
149.72743 -49.593906 822.48004 4283062596
143.70555 -49.042404 822.91406 4282209336
144.23447 -49.12257 822.77869 4283523645
144.57417 -49.027798 822.59814 4282807380
145.07883 -49.100384 822.34326 4286624865
145.42065 -49.004738 822.16913 4290248643
145.93974 -49.086739 822.0213 4294967295
146.30139 -48.996437 821.94415 4294967295
146.85085 -49.080952 821.92352 4294967295
147.24101 -48.996284 821.97943 4294967295
147.82108 -49.08897 822.09717 4289451426
148.22099 -49.011547 822.22894 4283466871
148.7989 -49.101456 822.32465 4283591757
149.18849 -49.016865 822.40411 4282275402
149.76419 -49.106087 822.48608 4283062081
144.20627 -48.68288 822.79248 4283260480
144.659 -48.650753 822.58929 4282088273
145.04999 -48.658382 822.34583 4286622064
145.50191 -48.629623 822.159 4290969525
145.91135 -48.64576 822.02161 4294967295
146.38809 -48.618748 821.94116 4294967295
146.8116 -48.643356 821.9212 4294967295
147.32448 -48.620899 821.98358 4294967295
147.78064 -48.651001 822.08673 4290106816
148.30792 -48.636082 822.23022 4283603573
148.75845 -48.66555 822.31519 4283852629
149.2834 -48.636635 822.3963 4282080842
149.72328 -48.668018 822.4754 4282865474
143.70813 -48.119934 822.94556 4282011445
144.23685 -48.197514 822.80865 4283326779
144.57491 -48.102333 822.61938 4283266388
145.07893 -48.175091 822.36108 4286688858
145.4201 -48.07922 822.18311 4288872372
145.93855 -48.160378 822.03198 4294967295
146.29922 -48.06958 821.94922 4294967295
146.84789 -48.153519 821.92432 4294967295
147.23444 -48.070721 821.97333 4294967295
147.81479 -48.161491 822.08081 4290506675
148.21271 -48.086559 822.21198 4283863163
148.79245 -48.176331 822.30646 4284181835
149.18185 -48.089539 822.38184 4282407754
149.75787 -48.179279 822.46924 4283063360
144.20648 -47.759159 822.81244 4283129403
144.6572 -47.725052 822.59583 4282548050
145.04782 -47.731369 822.35138 4286227048
145.50011 -47.701736 822.16443 4289068963
145.90935 -47.718323 822.02716 4294967295
146.38557 -47.691673 821.94354 4294967295
146.80898 -47.716694 821.92285 4294967295
147.32019 -47.693474 821.97632 4294967295
147.77425 -47.723217 822.06848 4290638274
148.29987 -47.709679 822.20319 4283803002
148.74953 -47.741417 822.28326 4284247384
149.27342 -47.708164 822.35779 4282147145
149.71335 -47.740162 822.43823 4282668866
143.70837 -47.198116 822.96326 4281814835
144.23557 -47.273201 822.81915 4283261754
144.57054 -47.175648 822.61182 4283069519
145.07483 -47.24654 822.35547 4285900121
145.41675 -47.150375 822.18158 4288276900
145.93637 -47.231571 822.0365 4294967295
146.29735 -47.142483 821.95514 4294967295
146.84607 -47.227348 821.93115 4294967295
147.22878 -47.144207 821.97272 4294967295
147.80547 -47.233932 822.06451 4290706362
148.20184 -47.159939 822.18109 4284454782
148.77934 -47.25148 822.26544 4284052044
149.16379 -47.172451 822.33087 4281752137
149.74516 -47.250122 822.41492 4282538561
144.20442 -46.834476 822.81787 4283195197
144.65057 -46.796329 822.57666 4282874442
145.04169 -46.804188 822.33453 4286225259
145.4948 -46.77388 822.15234 4288869784
145.90555 -46.787323 822.02417 4294967295
146.38235 -46.76099 821.94373 4294967295
146.80638 -46.787964 821.92548 4294967295
147.31577 -46.764458 821.97064 4294967295
147.76689 -46.792694 822.04669 4291164112
148.286 -46.781116 822.16101 4284327551
148.73685 -46.814171 822.23053 4284116828
149.24431 -46.79044 822.2923 4282279244
149.6976 -46.810375 822.36823 4282997318
143.7092 -46.277069 822.99469 4282341695
144.23206 -46.349575 822.83136 4283460931
144.56133 -46.250732 822.58929 4283136853
145.06468 -46.322506 822.3335 4286229346
145.40758 -46.223965 822.16119 4289263532
145.93205 -46.30127 822.02722 4294967295
146.29338 -46.210857 821.94983 4294967295
146.84262 -46.29697 821.92816 4294967295
147.22321 -46.215519 821.95911 4294967295
147.79269 -46.306477 822.02917 4292148939
148.18553 -46.231583 822.12048 4286360214
148.75233 -46.322884 822.16571 4284646501
149.13318 -46.245468 822.20209 4283001690
149.70419 -46.318241 822.24908 4283196487
150.0493 -46.280434 822.25934 4282211910
144.20134 -45.909554 822.83075 4284512599
144.6373 -45.874321 822.55334 4284061030
145.03125 -45.881954 822.31146 4287149948
145.48489 -45.84742 822.13043 4290641850
145.89696 -45.859604 822.01343 4294967295
146.37868 -45.832386 821.93829 4294967295
146.80261 -45.859871 821.92188 4294967295
147.30974 -45.836876 821.95416 4294967295
147.75375 -45.867661 822.01056 4292673228
148.26718 -45.852459 822.09351 4286890658
148.71539 -45.882862 822.14484 4286092668
149.21196 -45.865128 822.18158 4284449898
149.66917 -45.8764 822.2265 4284379223
150.092 -45.890984 822.23987 4282739273
144.22423 -45.427185 822.83881 4286090347
144.5486 -45.326969 822.55981 4286226809
145.05254 -45.398365 822.30096 4288333709
145.39633 -45.299309 822.12836 4291622837
145.92499 -45.374554 822.00342 4294115296
146.2877 -45.284691 821.93433 4294967295
146.83711 -45.369766 821.91327 4294967295
147.21626 -45.288105 821.93713 4294967278
147.77904 -45.380173 821.98761 4292344518
148.1678 -45.302914 822.05292 4289776299
148.7307 -45.39444 822.09686 4287933581
149.10944 -45.321033 822.12616 4286486908
149.67755 -45.391125 822.16418 4285827176
150.04662 -45.321571 822.17584 4283724887
144.19756 -44.987709 822.84003 4286552950
144.62712 -44.950535 822.53143 4286753155
145.01988 -44.95792 822.28247 4288529556
145.47603 -44.922577 822.0979 4290832552
145.88579 -44.937309 821.98486 4292804548
146.37152 -44.907124 821.9151 4294967244
146.7948 -44.93507 821.89606 4294967251
147.30098 -44.910702 821.92151 4293984201
147.73824 -44.942184 821.96051 4291554751
148.24788 -44.923836 822.02045 4289318311
148.69456 -44.952469 822.06354 4288461207
149.18306 -44.940311 822.09192 4287276934
149.64819 -44.945309 822.12695 4286289780
150.10768 -44.941277 822.1366 4284450407
144.21797 -44.504574 822.85376 4287078775
144.53885 -44.404213 822.54822 4288328072
145.04245 -44.474609 822.27838 4288594576
145.38531 -44.37656 822.09613 4290108064
145.9158 -44.451172 821.96906 4291097008
146.27818 -44.359814 821.8985 4291952058
146.82646 -44.443943 821.87036 4292607944
147.20444 -44.363117 821.88776 4292080316
147.76462 -44.453705 821.92358 4290831794
148.14873 -44.375324 821.97675 4289514912
148.71318 -44.466301 822.03442 4288724627
149.09511 -44.385296 822.06494 4287804039
149.64867 -44.469479 822.10541 4287013245
150.03856 -44.380692 822.12396 4285959791
144.19525 -44.06171 822.85907 4286817656
144.62041 -44.025108 822.52795 4287739016
145.01114 -44.03548 822.26672 4289054099
145.46811 -43.999348 822.06897 4290566046
145.8737 -44.018024 821.94824 4291422381
146.36092 -43.983765 821.87006 4293128370
146.78217 -44.010468 821.84137 4292341690
147.28679 -43.985245 821.8559 4291092138
147.71829 -44.018108 821.88477 4290042023
148.22929 -43.995312 821.93372 4288662683
148.67313 -44.024445 821.98016 4288398482
149.17163 -44.003387 822.0094 4287871370
149.61635 -44.02177 822.04413 4286817918
150.10899 -44.002098 822.05762 4285108342
144.21637 -43.579865 822.87714 4286752376
144.53421 -43.4776 822.55121 4287935877
145.03761 -43.547398 822.26556 4289513106
145.37796 -43.452843 822.07068 4290172830
145.90634 -43.528595 821.93073 4290569134
146.26671 -43.438148 821.85016 4291750837
146.81297 -43.520668 821.80927 4290963126
147.1891 -43.437885 821.81787 4290568622
147.7478 -43.525406 821.84698 4289911977
148.13106 -43.446205 821.89557 4289121436
148.69566 -43.536243 821.9549 4289185687
149.0688 -43.452293 821.94843 4287739783
149.62097 -43.538219 821.97034 4287014785
150.00168 -43.4505 821.97467 4286157174
150.50238 -43.560249 821.96814 4284775758
144.19482 -43.138153 822.87347 4286555511
144.6174 -43.098148 822.52539 4287804293
145.00517 -43.107559 822.25073 4289185427
145.46017 -43.07338 822.03998 4289975195
145.86353 -43.094589 821.90784 4290043299
146.34874 -43.060043 821.81738 4290766256
146.7682 -43.0877 821.77875 4290635435
147.27148 -43.060001 821.78577 4290503850
147.70277 -43.090641 821.81403 4289254303
148.21411 -43.065536 821.86462 4288332693
148.65971 -43.095455 821.92273 4288725397
149.16136 -43.074238 821.96851 4287803266
149.60591 -43.09536 822.0058 4286948477
150.10051 -43.075027 822.02661 4285896568
150.45627 -43.123077 822.04907 4285301596
144.21614 -42.655739 822.89276 4286030198
144.53116 -42.553539 822.55042 4287409793
145.03249 -42.621883 822.25317 4288593292
145.37064 -42.52684 822.04565 4289120917
145.89709 -42.602795 821.89551 4289845153
146.25522 -42.512737 821.80225 4291027626
146.80022 -42.595169 821.75433 4291028141
147.17473 -42.512321 821.75439 4290109092
147.73363 -42.598724 821.78406 4289056924
148.11684 -42.518581 821.83319 4289251226
148.6832 -42.60762 821.9024 4288856983
149.06422 -42.525177 821.9389 4287804295
149.62283 -42.612179 821.98065 4286751867
150.00372 -42.52718 822.0014 4285961841
150.55426 -42.616463 822.0235 4285302861
144.19852 -42.21199 822.89667 4286094964
144.61653 -42.174408 822.53564 4286950015
145.00499 -42.183586 822.25024 4288133260
145.45506 -42.148357 822.02777 4289119637
145.85988 -42.167675 821.88715 4289909410
146.33969 -42.133865 821.78235 4291353513
146.75821 -42.160851 821.73834 4291487410
147.25934 -42.132847 821.73419 4291354282
147.69064 -42.165722 821.7652 4289712800
148.20222 -42.138851 821.81525 4288924059
148.6496 -42.167839 821.88623 4288528784
149.15416 -42.146675 821.94513 4287936137
149.59483 -42.172371 821.99261 4287015038
150.09688 -42.149567 822.02252 4285963128
150.49307 -42.190697 822.05762 4285302620
144.21571 -41.731113 822.90765 4286291574
144.53113 -41.628555 822.55408 4287212674
145.0284 -41.696922 822.24713 4288002447
145.36514 -41.600903 822.03107 4289185177
145.89075 -41.677021 821.87457 4289384609
146.24686 -41.588627 821.77106 4290502055
146.79156 -41.669491 821.72076 4290895791
147.16418 -41.585876 821.71082 4290895018
147.72354 -41.672619 821.74384 4289909155
148.10597 -41.591377 821.78888 4289382297
148.67409 -41.678875 821.8689 4288790163
149.06123 -41.598873 821.93799 4288001418
149.63181 -41.683903 821.99585 4287146113
150.00655 -41.603394 822.03125 4286355317
150.58696 -41.682655 822.07788 4285433430
144.20087 -41.287464 822.91119 4286685304
144.61423 -41.250301 822.53882 4287540612
145.00378 -41.255997 822.24329 4287871371
145.44978 -41.221596 822.01447 4288398229
145.85664 -41.24194 821.86865 4289122459
146.33238 -41.210155 821.75739 4290436773
146.75108 -41.237259 821.71326 4290108580
147.25067 -41.20731 821.70239 4290040997
147.68271 -41.239269 821.73596 4289777826
148.19362 -41.211319 821.78381 4289315733
148.6422 -41.239956 821.86047 4289052566
149.14806 -41.219181 821.92847 4288525197
149.59822 -41.24398 821.98065 4287145087
150.09261 -41.224186 822.01611 4285829744
150.52904 -41.255516 822.05896 4285497950
144.21848 -40.803867 822.92456 4286618741
144.53198 -40.702118 822.56219 4287475072
145.02493 -40.770863 822.2464 4287739527
145.36098 -40.677135 822.02356 4288266896
145.8855 -40.753479 821.86292 4288859800
146.24095 -40.664841 821.75323 4289517215
146.78543 -40.744873 821.70416 4289845157
147.15744 -40.661114 821.68848 4290107044
147.71669 -40.746902 821.72198 4289515937
148.09906 -40.664276 821.76508 4289185173
148.66719 -40.751419 821.84521 4289248661
149.05397 -40.671223 821.91327 4289050511
149.62491 -40.755753 821.97247 4286948736
149.99911 -40.676952 822.00586 4285632879
150.58008 -40.756584 822.05627 4285695571
144.20399 -40.358471 822.93073 4285962094
144.61652 -40.320923 822.55139 4286883964
145.00507 -40.328743 822.25037 4287476869
145.44664 -40.297523 822.01477 4288463763
145.85631 -40.317322 821.86481 4289056410
146.32767 -40.285851 821.74786 4290040738
146.74661 -40.312923 821.7038 4290173096
147.245 -40.282593 821.68671 4289778851
147.67693 -40.314465 821.71875 4289253527
148.18684 -40.285778 821.76227 4288923022
148.63493 -40.313942 821.83661 4288986512
149.14067 -40.290897 821.90387 4288460170
149.58533 -40.319908 821.95697 4287145854
150.08469 -40.297562 821.98987 4286093432
150.5209 -40.329678 822.03613 4285826914
144.22664 -39.875465 822.95209 4285238631
144.53738 -39.772091 822.58258 4285897329
145.02785 -39.842407 822.26056 4286949758
145.36151 -39.751514 822.02917 4288462479
145.88266 -39.829021 821.86224 4289252512
146.23694 -39.740433 821.74567 4290762920
146.78044 -39.820839 821.69232 4290959277
147.15152 -39.735882 821.67035 4290304166
147.70955 -39.819855 821.6969 4289648801
148.09134 -39.739159 821.73663 4288792462
148.65851 -39.826153 821.8111 4288592261
149.04428 -39.745651 821.87494 4287541377
149.6122 -39.830555 821.93353 4287211649
149.9884 -39.750546 821.96332 4287339132
150.56099 -39.833057 822.01501 4286023774
144.20621 -39.43502 822.95923 4284712286
144.62267 -39.391712 822.57031 4285108328
145.00711 -39.399731 822.26276 4286423158
145.44749 -39.36927 822.01788 4287739016
145.85553 -39.389771 821.85925 4289055130
146.32248 -39.361095 821.73401 4290892456
146.74319 -39.386623 821.68195 4290828207
147.23689 -39.355942 821.6571 4290171303
147.66742 -39.387699 821.67773 4289648284
148.17613 -39.360374 821.71948 4289252237
148.62338 -39.388596 821.78577 4288593032
149.12891 -39.365055 821.85529 4287869311
149.57648 -39.393211 821.90918 4287276669
150.07323 -39.370487 821.9425 4286486907
150.51726 -39.398682 821.99207 4286155371
144.23289 -38.947353 822.9696 4284579163
144.54103 -38.845345 822.59424 4284908898
145.03008 -38.915962 822.26947 4286224495
145.36375 -38.823578 822.03094 4287146878
145.87961 -38.902576 821.85822 4288659346
146.2345 -38.813019 821.73395 4290236062
146.77437 -38.893982 821.67285 4290891175
147.14389 -38.810024 821.64362 4291418283
147.69937 -38.894485 821.65527 4290304937
148.08014 -38.814335 821.69006 4289121938
148.64497 -38.89925 821.75201 4288921994
149.03049 -38.817936 821.81445 4287935363
149.59512 -38.904629 821.87225 4287146109
149.97375 -38.822845 821.89929 4286223989
150.53807 -38.908653 821.95227 4285892706
144.2066 -38.508129 822.97717 4284248408
144.62775 -38.46336 822.58301 4284119128
145.00946 -38.474903 822.27692 4285302885
145.44943 -38.444435 822.02631 4286356595
145.85883 -38.462597 821.8623 4287804036
146.31929 -38.433315 821.72992 4289905817
146.74387 -38.456051 821.66998 4290301605
147.23061 -38.429703 821.63605 4290630056
147.66093 -38.461185 821.64142 4290107811
148.16522 -38.435459 821.67493 4289777304
148.61046 -38.461948 821.72955 4288791184
149.11537 -38.436817 821.79614 4287870342
149.56578 -38.464882 821.84912 4287343486
150.05914 -38.44268 821.87976 4286356345
150.51167 -38.467197 821.92993 4286287469
144.23697 -38.019756 822.97742 4283591509
144.543 -37.918385 822.59766 4283854679
145.03459 -37.988354 822.27802 4284711006
145.3665 -37.895721 822.03741 4285370220
145.88046 -37.974892 821.86176 4286817403
146.2338 -37.886852 821.73254 4288329097
146.77005 -37.968864 821.66412 4289183380
147.13773 -37.884777 821.62494 4290170781
147.69046 -37.967876 821.62048 4289844389
148.06885 -37.887615 821.64355 4289843356
148.63161 -37.972042 821.69318 4288921747
149.01611 -37.891235 821.75122 4288067466
149.58011 -37.977791 821.80713 4288196745
149.95723 -37.8983 821.83136 4287013245
150.52185 -37.981037 821.88531 4286945386
144.20581 -37.584137 822.98749 4283525459
144.63065 -37.536469 822.58398 4283264081
145.01019 -37.548527 822.2804 4284381022
145.45311 -37.514877 822.02869 4285171564
145.86131 -37.533749 821.86072 4286223988
146.31908 -37.508221 821.72626 4287276667
146.7475 -37.527973 821.65814 4288066948
147.22418 -37.503078 821.61536 4289053840
147.6602 -37.529037 821.60632 4288990357
148.15422 -37.507023 821.62952 4289579674
148.60275 -37.53339 821.67218 4288462483
149.10153 -37.512211 821.7345 4287934601
149.55649 -37.535587 821.78448 4287539591
150.03847 -37.516468 821.81378 4286224763
150.50401 -37.535801 821.86371 4286157676
144.23732 -37.092533 822.97974 4283919960
144.54166 -36.992805 822.59485 4283591252
145.03676 -37.060944 822.2738 4284510558
145.36517 -36.970337 822.0332 4285890668
145.88217 -37.048199 821.85364 4285631343
146.2314 -36.962425 821.72198 4286225266
146.76729 -37.042336 821.64575 4287605881
147.13029 -36.959045 821.59845 4287608192
147.68105 -37.041527 821.58282 4288200331
148.05786 -36.960217 821.59863 4288791441
148.61916 -37.044289 821.64014 4287805326
149.00383 -36.965225 821.69879 4287999883
149.57137 -37.050915 821.7749 4287080071
149.94917 -36.972569 821.802 4286881151
150.51352 -37.05452 821.85376 4286026859
150.88315 -37.004498 821.89099 4284649063
144.20274 -36.655296 822.9845 4283459152
144.6295 -36.610619 822.57721 4283064908
145.00674 -36.625965 822.27435 4283917650
145.45256 -36.590584 822.02319 4284116824
145.85977 -36.608898 821.85236 4285235555
146.31807 -36.581818 821.71704 4286551151
146.74736 -36.602394 821.64288 4287209849
147.21812 -36.581318 821.5946 4288064894
147.66096 -36.601269 821.58026 4288198793
148.1458 -36.578911 821.59741 4288921237
148.59909 -36.601982 821.63635 4287870861
149.09261 -36.584007 821.70093 4287410058
149.55305 -36.605003 821.76428 4287015556
150.03235 -36.590939 821.79578 4286423426
150.49713 -36.610184 821.83942 4286092397
150.93004 -36.614429 821.87457 4284520290
144.23773 -36.166759 822.98425 4282932299
144.53905 -36.069183 822.59442 4282603075
145.03813 -36.134933 822.26892 4282866494
145.36153 -36.04665 822.02716 4282540615
145.8828 -36.121586 821.84302 4284119640
146.22685 -36.038441 821.71118 4285696363
146.76396 -36.118885 821.62744 4286027125
147.12383 -36.037315 821.57739 4287341696
147.6747 -36.117138 821.56232 4287803276
148.05167 -36.034752 821.57922 4288525710
148.61371 -36.117069 821.62451 4288065419
149.00229 -36.035793 821.69324 4287672197
149.56787 -36.121521 821.7688 4287539845
149.94748 -36.050045 821.80304 4287406718
150.51169 -36.129627 821.8562 4286813547
150.88112 -36.081352 821.89307 4284518245
144.20197 -35.733025 822.99457 4282470978
144.63004 -35.687344 822.57947 4282077756
145.00348 -35.703468 822.27063 4282733886
145.45094 -35.664787 822.01428 4282737985
145.85463 -35.681671 821.83722 4283920980
146.31444 -35.655491 821.69855 4285039977
146.74261 -35.678524 821.61566 4286157428
147.2097 -35.657623 821.56458 4287471742
147.6591 -35.67345 821.55432 4287604615
148.14256 -35.652092 821.57812 4288063113
148.60011 -35.674927 821.62659 4287670663
149.09766 -35.656689 821.71069 4287407488
149.55659 -35.678288 821.78394 4286553717
150.04163 -35.663849 821.82904 4286092659
150.50194 -35.6875 821.88129 4286484844
150.96248 -35.68095 821.92065 4285239910
144.23775 -35.24239 823 4281814074
144.53802 -35.147408 822.60345 4282011197
145.03787 -35.212757 822.26752 4282801215
145.35968 -35.123425 822.02075 4282803014
145.88037 -35.194546 821.82861 4284446040
146.22319 -35.110638 821.69324 4286351725
146.75945 -35.18988 821.60046 4287141244
147.12056 -35.108521 821.55023 4287734400
147.6682 -35.191307 821.54126 4287275140
148.05168 -35.109608 821.56927 4287471489
148.61461 -35.193172 821.62726 4286683000
149.01117 -35.111919 821.72064 4285960046
149.5784 -35.197323 821.8075 4285434469
149.96037 -35.122234 821.85645 4285039969
150.52977 -35.203709 821.92065 4286417764
150.89166 -35.158161 821.96234 4285894507
144.63 -34.765774 822.59418 4282077500
145.00133 -34.783398 822.27405 4282734656
145.45029 -34.741661 822.01007 4283327046
145.85008 -34.757763 821.82648 4284641622
146.31165 -34.726974 821.68164 4286547048
146.73598 -34.748558 821.5929 4287601534
147.20547 -34.727901 821.54126 4288585863
147.6537 -34.748127 821.53809 4287143550
148.14177 -34.727695 821.5741 4286682233
148.59935 -34.752934 821.63678 4285564009
149.10704 -34.733707 821.74792 4284447578
149.56496 -34.760025 821.84375 4284511574
150.0674 -34.738937 821.90833 4284184144
150.51724 -34.766781 821.97748 4285235036
151.00624 -34.749405 822.02905 4284911205
144.53862 -34.225616 822.62122 4282209088
145.03709 -34.290241 822.27814 4282736198
145.36011 -34.199474 822.02686 4283261772
145.87845 -34.269699 821.83148 4283526220
146.22223 -34.184162 821.69135 4284643930
146.75595 -34.26371 821.59564 4286483568
147.11894 -34.181934 821.54401 4287666300
147.66553 -34.265839 821.54089 4286420093
148.05014 -34.18528 821.57526 4285695856
148.61813 -34.269062 821.64569 4284185183
149.01698 -34.190121 821.75562 4283330135
149.59279 -34.27747 821.87006 4283724624
149.97375 -34.203716 821.9339 4283067470
150.55304 -34.280003 822.01697 4284184142
150.91719 -34.216507 822.07245 4283924316
144.62752 -33.842056 822.60852 4282407233
145.00079 -33.856903 822.28522 4282998601
145.44676 -33.817482 822.02075 4283395150
145.84938 -33.835033 821.83679 4283723085
146.30733 -33.804859 821.68945 4284644435
146.73438 -33.823174 821.59808 4285563750
147.2029 -33.800194 821.54315 4286548335
147.65134 -33.821293 821.54016 4286286711
148.13945 -33.803551 821.5755 4285891431
148.597 -33.830353 821.63928 4284905828
149.1084 -33.810207 821.75372 4284051800
149.56494 -33.841972 821.85913 4283787861
150.07428 -33.817253 821.93066 4283264590
150.52005 -33.844059 822.0083 4283591756
151.02542 -33.819096 822.0675 4283399252
144.22453 -33.391235 822.96777 4282801735
144.52928 -33.298016 822.59375 4283065164
145.02667 -33.364342 822.26001 4283460688
145.35355 -33.275719 822.01599 4283855191
145.87001 -33.348915 821.82562 4284185174
146.21638 -33.261459 821.68457 4284317277
146.74945 -33.338081 821.58716 4285041513
147.11366 -33.254185 821.52856 4286222710
147.65874 -33.337894 821.51807 4285698678
148.04129 -33.258339 821.54059 4285763188
148.60699 -33.344044 821.59888 4285435252
149.00117 -33.268421 821.69385 4285300846
149.58138 -33.3535 821.80597 4283724383
149.96027 -33.276875 821.86597 4283854940
150.54358 -33.355324 821.94946 4283527762
150.91238 -33.276913 822.00592 4283331669
144.17171 -32.951305 822.86475 4283788121
144.5986 -32.911022 822.48938 4284248672
144.98082 -32.92617 822.18719 4284643943
145.42494 -32.891228 821.94293 4285235311
145.8351 -32.910259 821.77148 4285893234
146.29175 -32.880573 821.63019 4286091634
146.72154 -32.89632 821.54095 4286553467
147.18913 -32.872219 821.47864 4287277193
147.63478 -32.893806 821.4624 4287146374
148.11621 -32.875397 821.4762 4287014026
148.57216 -32.901749 821.51746 4286948488
149.0723 -32.88311 821.59961 4286617734
149.53137 -32.912437 821.69019 4285696631
150.0358 -32.88829 821.74792 4284842350
150.48232 -32.915672 821.81604 4284447327
150.99184 -32.88879 821.8725 4283594840
144.16641 -32.449684 822.65009 4284969578
144.48021 -32.359856 822.32874 4285759853
144.98106 -32.429043 822.03094 4286022521
145.31564 -32.341702 821.81586 4287468416
145.83278 -32.418106 821.64539 4287862407
146.18394 -32.332985 821.5177 4287997574
146.71524 -32.410221 821.42566 4288260494
147.07954 -32.325958 821.36371 4288592018
147.62379 -32.40649 821.33649 4289509790
147.99756 -32.327728 821.3363 4289313689
148.56158 -32.409451 821.36255 4289114268
148.94382 -32.333279 821.41614 4288589200
149.52097 -32.414314 821.48956 4287665541
149.90047 -32.339264 821.55255 4286483573
150.47884 -32.417759 821.61072 4285300070
150.85039 -32.339859 821.6507 4283658327
151.42494 -32.415104 821.69501 4283460426
143.72081 -31.987356 822.76471 4283851865
144.08453 -32.005085 822.38025 4284445536
144.52318 -31.966507 822.0752 4285234538
144.91414 -31.983665 821.82227 4285498989
145.36411 -31.953178 821.61401 4286286973
145.77846 -31.973997 821.466 4287142784
146.24036 -31.944672 821.33942 4287734664
146.66811 -31.96413 821.25549 4287408772
147.14035 -31.936552 821.18683 4287867791
147.57645 -31.95857 821.15222 4288198034
148.05817 -31.934975 821.13477 4288327063
148.5014 -31.960127 821.14124 4287999888
148.99434 -31.936563 821.1673 4288193679
149.4415 -31.964445 821.21185 4286813822
149.94409 -31.940983 821.25891 4285235053
150.37497 -31.968597 821.24408 4284182619
150.87619 -31.941833 821.25586 4283131474
151.30676 -31.966503 821.26337 4283063111
151.80621 -31.935925 821.25342 4283063870
157.39731 -31.941383 821.37518 4282801716
157.7191 -31.998222 821.34125 4282998077
158.31732 -31.942019 821.33258 4283524669
159.25264 -31.938274 821.36603 4283392317
160.21158 -31.945288 821.52026 4283458111
160.54535 -32.008667 821.57422 4283457856
136.40611 -31.439945 820.64093 4282274881
136.76733 -31.364178 820.58203 4282600769
137.31534 -31.46364 820.54053 4282076735
137.67801 -31.376421 820.49335 4282009659
138.22453 -31.445147 820.44159 4281484344
138.59344 -31.349953 820.43243 4281483574
139.15681 -31.437201 820.47864 4281287220
139.54553 -31.386389 820.58826 4281286194
140.14581 -31.480997 820.84302 4280827183
140.56766 -31.413927 821.14728 4280761134
141.21159 -31.510937 821.65118 4280827693
141.6739 -31.425909 822.18939 4280959281
142.26558 -31.506794 822.38989 4281616951
142.6347 -31.418819 822.38794 4282405441
143.18623 -31.502796 822.35345 4282734918
143.52078 -31.422846 822.15027 4282933067
144.02673 -31.493935 821.86591 4283459405
144.35994 -31.409464 821.6571 4283591762
144.87401 -31.48176 821.43726 4284642906
145.21884 -31.398167 821.28174 4284906081
145.74463 -31.474766 821.14655 4285629029
146.10005 -31.389854 821.04749 4285893995
146.63615 -31.465294 820.9632 4286288496
146.99919 -31.384024 820.90393 4286617460
147.54332 -31.462957 820.85449 4286683257
147.91026 -31.382931 820.82941 4287273594
148.46468 -31.459002 820.80884 4286681976
148.83505 -31.378929 820.80682 4286615408
149.39839 -31.457375 820.81561 4285628004
149.77092 -31.383263 820.83276 4284181591
150.32872 -31.463182 820.80414 4283326285
150.68513 -31.380537 820.73248 4282931017
151.22694 -31.454565 820.63446 4282209087
151.58054 -31.368891 820.56146 4281945660
152.12689 -31.436325 820.48853 4281880636
152.48828 -31.355009 820.45801 4282077247
153.04845 -31.437832 820.45746 4281685312
153.4292 -31.371901 820.53528 4282011456
154.01686 -31.457863 820.67578 4281947716
154.40691 -31.382658 820.80664 4282799688
154.98729 -31.460562 820.90552 4282013256
155.36304 -31.384743 820.96143 4282471750
155.93546 -31.467505 821.01605 4282801995
156.30528 -31.393019 821.03979 4283194953
156.86516 -31.468821 821.02649 4283262541
157.2206 -31.386469 820.97571 4283261260
157.77658 -31.459448 820.94067 4283263054
158.1349 -31.381107 820.90552 4283721808
158.69913 -31.462898 820.91113 4283394899
159.06654 -31.387669 820.92444 4283524176
159.63704 -31.467121 820.96051 4283786321
160.01556 -31.390766 821.03302 4283655504
160.60271 -31.466797 821.15411 4283394897
160.98225 -31.389067 821.23181 4283591759
134.01176 -30.981617 820.15552 4283985221
134.43745 -30.995609 820.12103 4283787852
134.92677 -30.958336 820.09753 4283788106
135.36212 -30.987085 820.12775 4283787346
135.8622 -30.964888 820.16016 4283787349
136.29674 -31.001461 820.19116 4283720788
136.79491 -30.97352 820.19989 4283654483
137.22073 -31.00672 820.18933 4283720531
137.71661 -30.975368 820.17303 4283456589
138.13246 -30.99711 820.10858 4282865482
138.62915 -30.955988 820.09448 4282470982
139.05646 -30.990601 820.09998 4282470726
139.56758 -30.978668 820.1795 4282076992
140.02118 -31.022087 820.32745 4282076481
140.55334 -30.99696 820.52905 4281814589
141.02693 -31.044836 820.79382 4281748029
141.57355 -31.018108 821.0752 4281617979
142.03323 -31.037809 821.25879 4282011201
142.55441 -30.998785 821.3924 4282078020
142.98781 -31.035145 821.42377 4282603078
143.47693 -31.01166 821.38135 4282735944
143.89177 -31.040424 821.29346 4282800454
144.35768 -31.008139 821.13257 4282867266
144.76352 -31.030602 820.9823 4283523661
145.23206 -30.99889 820.85089 4283525196
145.64812 -31.022032 820.74573 4283919698
146.12407 -30.991482 820.65393 4284446035
146.5453 -31.015671 820.58173 4284512345
147.02629 -30.985384 820.51782 4284710232
147.45102 -31.009493 820.46741 4284709722
147.93596 -30.980293 820.42444 4285235294
148.36316 -31.006107 820.39075 4285037919
148.8515 -30.978062 820.36346 4285035863
149.2814 -31.005014 820.34552 4284049486
149.7782 -30.9799 820.34949 4283522628
150.2037 -31.012175 820.32227 4282929987
150.69157 -30.982191 820.26398 4282535998
151.10738 -31.004091 820.1969 4282338364
151.60027 -30.970055 820.15265 4282404408
152.01939 -31.001421 820.12164 4282403900
152.52167 -30.971186 820.12299 4282470717
152.94844 -31.003782 820.13788 4282602304
153.46721 -30.975172 820.22467 4282734402
153.91426 -31.007853 820.34845 4282997064
154.44214 -30.983065 820.48083 4283326285
154.88136 -31.016619 820.56366 4283326284
155.39543 -30.988716 820.62115 4283260747
155.82742 -31.024986 820.66321 4283589197
156.33434 -30.997473 820.67987 4283721292
156.75488 -31.023346 820.66608 4283984464
157.24323 -30.989334 820.61249 4284181586
157.63194 -31.026545 820.58112 4284379477
158.15804 -30.989283 820.54663 4284773461
158.58737 -31.020403 820.55347 4284248405
159.08955 -30.989389 820.5658 4284181078
159.52388 -31.022863 820.59918 4284442712
160.03682 -30.993898 820.66693 4283984211
160.44841 -31.036917 820.76483 4283919954
160.99583 -30.99909 820.84125 4284183378
134.41551 -30.500927 819.80939 4284052319
134.77943 -30.419498 819.75952 4284183645
135.33701 -30.489182 819.78894 4284379744
135.71091 -30.407526 819.80408 4285100895
136.26793 -30.488317 819.82471 4285099872
136.63838 -30.413433 819.82288 4285035358
137.18854 -30.501387 819.81207 4285231200
137.55605 -30.423277 819.79126 4284575836
138.09752 -30.496229 819.72845 4284312670
138.46329 -30.414217 819.69794 4284378204
139.01445 -30.495127 819.69202 4283853148
139.39409 -30.423996 819.73297 4283590230
139.96144 -30.506718 819.81793 4283327830
140.3553 -30.432135 819.93518 4283393108
140.93391 -30.519707 820.09375 4282802000
141.33376 -30.440399 820.24646 4282933071
141.9077 -30.512875 820.37982 4282408527
142.29709 -30.434597 820.46698 4283129169
142.85487 -30.518108 820.50665 4282735695
143.23111 -30.440899 820.51495 4282997841
143.77386 -30.520592 820.46686 4282015049
144.13794 -30.441336 820.40686 4282473033
144.67046 -30.51787 820.2998 4282671432
145.03271 -30.434896 820.23151 4282736972
145.5697 -30.510777 820.14783 4282411852
145.93193 -30.43038 820.0943 4282935117
146.47453 -30.505558 820.0296 4282607686
146.8387 -30.425005 819.98779 4282540872
147.38332 -30.502947 819.9339 4282411589
147.74684 -30.423225 819.9021 4282607178
148.29689 -30.497263 819.85077 4282674248
148.65877 -30.417324 819.81567 4282474053
149.20995 -30.492325 819.76648 4281883453
149.57327 -30.416433 819.74249 4281815102
150.12856 -30.495449 819.71198 4281618744
150.48997 -30.419687 819.68341 4281880126
151.04176 -30.494623 819.64307 4281749819
151.40884 -30.414579 819.6463 4282208320
151.96783 -30.489729 819.65759 4282274882
152.34546 -30.413366 819.70465 4282603335
152.91139 -30.497076 819.76361 4282671437
153.29758 -30.423498 819.84607 4283063885
153.8714 -30.507311 819.95776 4283130960
154.26379 -30.429806 820.06073 4283459923
154.82988 -30.511877 820.12805 4284117082
155.2108 -30.434376 820.17114 4284313432
155.76881 -30.515583 820.1944 4284182617
156.14366 -30.436401 820.20453 4284248151
156.69308 -30.515259 820.18152 4284248922
157.05829 -30.431484 820.14105 4285036380
157.6058 -30.509449 820.10596 4284511831
157.97215 -30.431875 820.08423 4284184406
158.52847 -30.511755 820.08246 4284316253
158.8981 -30.433046 820.08978 4284970079
159.46167 -30.513996 820.11285 4284575836
159.83658 -30.437254 820.15906 4284445019
160.41275 -30.515985 820.23737 4284119132
160.78926 -30.438087 820.29041 4284446042
134.31569 -30.043007 819.40033 4284446815
134.81445 -30.014927 819.42664 4284709222
135.24678 -30.046894 819.44531 4284249433
135.74367 -30.018963 819.45563 4283985753
136.17279 -30.049507 819.45972 4284576604
136.66576 -30.019251 819.45856 4284511076
137.09225 -30.049824 819.43494 4284708962
137.57965 -30.023144 819.4104 4284643686
138.00122 -30.049757 819.3446 4284841828
138.4843 -30.01907 819.30548 4284841574
138.9136 -30.046978 819.27332 4284775780
139.40637 -30.02179 819.28687 4284316003
139.84468 -30.051577 819.31158 4284513378
140.34618 -30.024969 819.37537 4284578405
140.79097 -30.058308 819.43848 4284446561
141.29691 -30.032223 819.52789 4284446304
141.74181 -30.056559 819.59058 4284249437
142.24278 -30.027473 819.65253 4284773215
142.68182 -30.055487 819.68018 4284904036
143.17581 -30.030926 819.69989 4284443743
143.60812 -30.059898 819.68781 4284050522
144.09529 -30.03281 819.66815 4284247638
144.52126 -30.057045 819.62091 4284247130
145.00519 -30.028585 819.5835 4283986008
145.43132 -30.05525 819.5365 4283658325
145.91591 -30.026995 819.50037 4283985999
146.34253 -30.05142 819.45966 4283721809
146.82846 -30.021736 819.42932 4283524935
147.25461 -30.048052 819.38843 4283393359
147.74025 -30.019047 819.35425 4283197256
148.16476 -30.043516 819.30707 4282998344
148.64957 -30.016195 819.26501 4282474045
149.07349 -30.043291 819.21631 4282603586
149.55934 -30.014576 819.17987 4282539071
149.98483 -30.04109 819.1413 4282603842
150.47583 -30.014629 819.13171 4283064387
150.90596 -30.041983 819.11981 4283129158
151.40514 -30.014717 819.15283 4283260996
151.84386 -30.044624 819.19006 4283326026
152.35178 -30.021193 819.26453 4283393098
152.79692 -30.052233 819.33966 4283459153
153.31041 -30.026451 819.44086 4283525712
153.75751 -30.055717 819.5285 4283985752
154.26978 -30.030796 819.62097 4284117847
154.71021 -30.061275 819.67169 4284577370
155.21396 -30.037151 819.71759 4284709724
155.64572 -30.065594 819.72168 4285038174
156.13716 -30.037561 819.71582 4284907101
156.56354 -30.061396 819.67896 4285300831
157.0466 -30.032211 819.64319 4285498466
157.47441 -30.05636 819.59949 4285366623
157.96066 -30.033045 819.57867 4285170523
158.39355 -30.059525 819.56403 4285236064
158.88585 -30.03343 819.5719 4285170021
159.326 -30.060997 819.59503 4285629033
159.82494 -30.037861 819.63727 4285301344
160.27013 -30.063437 819.68658 4285367396
160.7686 -30.03689 819.73993 4285301089
134.27219 -29.5378 818.94611 4284181338
134.64334 -29.463186 818.94525 4284706649
135.19164 -29.539803 818.91986 4284180818
135.56154 -29.463696 818.91394 4282540103
136.10922 -29.538177 818.88275 4284048974
136.47606 -29.459581 818.86188 4284115030
137.017 -29.537661 818.81641 4284510302
137.38141 -29.45974 818.7774 4285300067
137.91939 -29.536419 818.71991 4285827436
138.28349 -29.459944 818.67523 4285303911
138.82431 -29.53937 818.6391 4285697132
139.19792 -29.459702 818.63202 4285500012
139.74681 -29.537792 818.63086 4285894000
140.12746 -29.458797 818.65533 4285565548
140.67813 -29.54023 818.67371 4285564522
141.06126 -29.460743 818.7157 4285368682
141.6143 -29.540291 818.74646 4285434476
141.99518 -29.462795 818.77374 4285433963
142.54605 -29.542002 818.79266 4286023281
142.92633 -29.462505 818.81531 4286089074
143.47453 -29.544031 818.81665 4285302128
143.85332 -29.465548 818.8327 4285235818
144.40057 -29.542347 818.81244 4285169516
144.77411 -29.463188 818.81647 4285695343
145.32574 -29.540974 818.80096 4284581741
145.69501 -29.463396 818.79791 4284449380
146.24883 -29.537971 818.78064 4284054624
146.61745 -29.459732 818.77631 4284184672
147.16818 -29.537724 818.75159 4283988323
147.53522 -29.460096 818.74023 4284511842
148.08403 -29.535357 818.70428 4283528028
148.44749 -29.456093 818.67499 4283460949
148.99562 -29.532036 818.63202 4283330901
149.35892 -29.455187 818.60272 4283986264
149.90965 -29.533104 818.57324 4283593559
150.27745 -29.455784 818.5708 4284314712
150.8331 -29.534159 818.56561 4284249429
151.20763 -29.458303 818.60217 4284445526
151.77063 -29.537239 818.6496 4284446037
152.1539 -29.462694 818.7196 4284774748
152.72 -29.545191 818.79529 4284578909
153.10814 -29.466152 818.87793 4285366883
153.6732 -29.548475 818.96075 4285564774
154.06232 -29.471622 819.03442 4286023014
154.61987 -29.555206 819.07507 4286219364
155.00156 -29.475876 819.10968 4286024293
155.55209 -29.555447 819.11273 4286550376
155.92776 -29.474867 819.11499 4286484327
156.47154 -29.553701 819.08142 4287139431
156.84285 -29.470032 819.06085 4286681191
157.38593 -29.550453 819.02057 4286812262
157.75691 -29.47422 819.01184 4286813546
158.3065 -29.552666 818.9931 4287469938
158.67769 -29.471676 818.9986 4287601779
159.23651 -29.553976 819.01434 4287601011
159.61333 -29.478252 819.04932 4287209073
160.17766 -29.55509 819.09302 4288060533
160.55927 -29.470955 819.14258 4288060787
134.1469 -29.085691 818.38934 4282996546
134.64082 -29.059025 818.38409 4283192636
135.06386 -29.089474 818.35358 4282929986
135.55832 -29.058603 818.34967 4282601779
135.98212 -29.089758 818.32684 4282601532
136.47061 -29.060394 818.31732 4282406456
136.89709 -29.086491 818.28082 4283523147
137.37743 -29.059996 818.25342 4284314449
137.80711 -29.084723 818.20557 4285368421
138.28093 -29.059948 818.16895 4286026345
138.71796 -29.085619 818.13428 4285962096
139.19781 -29.06003 818.12909 4285829999
139.63629 -29.083498 818.12073 4286223988
140.12315 -29.058159 818.14075 4285895535
140.56151 -29.085459 818.14722 4285960815
141.05266 -29.059132 818.17737 4286027630
141.492 -29.08639 818.19037 4285962351
141.98138 -29.060551 818.20856 4286093424
142.41797 -29.08894 818.20837 4286421364
142.90672 -29.063019 818.22058 4286158452
143.34372 -29.088835 818.20862 4286223986
143.83023 -29.06287 818.22028 4286092657
144.26665 -29.085815 818.20703 4286420340
144.75255 -29.06002 818.21466 4286289781
145.19424 -29.08716 818.21497 4286093938
145.6787 -29.063295 818.22632 4285962609
146.11977 -29.086115 818.22699 4285567597
146.60536 -29.061195 818.24329 4285436275
147.04466 -29.086178 818.23438 4285697906
147.52794 -29.062572 818.23645 4285762418
147.96492 -29.08617 818.21545 4286090607
148.44427 -29.060446 818.19397 4285697131
148.88065 -29.083426 818.17059 4285829742
149.3605 -29.058043 818.15039 4285764212
149.79738 -29.083401 818.13281 4286092657
150.28177 -29.060358 818.13434 4286091892
150.72124 -29.086124 818.13226 4286288494
151.21286 -29.060415 818.17255 4286222963
151.65987 -29.086626 818.21246 4286748786
152.15625 -29.068424 818.27325 4287011449
152.60582 -29.09561 818.3291 4286815346
153.10481 -29.067795 818.40179 4286880891
153.55618 -29.092295 818.46997 4286815091
154.05402 -29.072361 818.53485 4287272823
154.49954 -29.103308 818.56982 4287864186
154.99275 -29.079491 818.6098 4287469688
155.43568 -29.101658 818.6297 4286880625
155.92422 -29.076843 818.64343 4287141751
156.36072 -29.099133 818.63007 4287667062
156.84209 -29.07266 818.62073 4287535481
157.27975 -29.099174 818.59991 4287602804
157.76329 -29.080235 818.58502 4288192891
158.19899 -29.102928 818.57043 4288391802
158.68275 -29.074486 818.56952 4287866497
159.12816 -29.102394 818.591 4287605110
159.6207 -29.08205 818.61981 4288325762
160.0672 -29.1029 818.66235 4288063351
160.55945 -29.075001 818.7157 4287931004
134.05508 -28.572773 817.67987 4281292340
134.44148 -28.500746 817.76758 4281355833
134.98656 -28.580193 817.73651 4281161529
135.36067 -28.507423 817.74945 4282340161
135.90771 -28.582521 817.72754 4281490234
136.27914 -28.504034 817.72894 4281488957
136.81929 -28.58177 817.69519 4282542912
137.1889 -28.503139 817.68091 4283725650
137.72711 -28.579893 817.64252 4285436260
138.09628 -28.501829 817.61859 4286750321
138.63531 -28.583435 817.59344 4287080830
139.01257 -28.505816 817.59558 4287474302
139.55753 -28.583193 817.59137 4287473789
139.9397 -28.502644 817.61163 4287275897
140.48535 -28.581554 817.61932 4287209586
140.86732 -28.500408 817.64362 4287276917
141.41434 -28.582006 817.65631 4287539831
141.79417 -28.505123 817.66656 4287934330
142.33862 -28.587799 817.66534 4287933818
142.71785 -28.508932 817.67181 4287409017
143.26053 -28.586323 817.65869 4287998070
143.6398 -28.503687 817.66864 4287998327
144.18614 -28.581533 817.65747 4288391544
144.56197 -28.503677 817.66687 4288262267
145.11528 -28.584913 817.67487 4288064380
145.49115 -28.508286 817.68982 4287868283
146.04539 -28.5826 817.70129 4288259453
146.42471 -28.502424 817.72583 4288391553
146.97386 -28.583834 817.73016 4288062080
147.35353 -28.507854 817.74634 4288522367
147.90269 -28.588024 817.74506 4289503358
148.27544 -28.505501 817.74011 4288325753
148.82716 -28.57724 817.73505 4289177473
149.19768 -28.498543 817.73389 4289113984
149.75287 -28.580509 817.73303 4289898631
150.12251 -28.508631 817.74261 4289113729
150.67834 -28.584826 817.74231 4289438082
151.05281 -28.505121 817.78009 4289046397
151.61137 -28.584986 817.82324 4289635457
151.9938 -28.512415 817.87476 4289245054
152.55078 -28.597345 817.92151 4289308033
152.93719 -28.515253 817.97955 4288522361
153.49606 -28.591385 818.04779 4288322420
153.88472 -28.514231 818.10553 4288455541
154.43933 -28.60421 818.13483 4289568638
154.82072 -28.526339 818.16852 4288258681
155.37466 -28.600513 818.19232 4287469429
155.7536 -28.519558 818.21417 4287534961
156.30165 -28.598785 818.20404 4288187761
156.67627 -28.514618 818.20581 4287861870
157.22379 -28.598228 818.19025 4288125299
157.59467 -28.52747 818.1839 4288324979
158.14372 -28.605047 818.16541 4289174646
158.51376 -28.520786 818.1665 4287928939
159.07274 -28.600819 818.18591 4287470190
159.44792 -28.526825 818.21338 4287209069
160.01028 -28.604164 818.24994 4286810976
160.39204 -28.520683 818.30243 4286351451
160.95277 -28.603151 818.35229 4287336027
134.44643 -28.100151 817.2627 4283855696
134.87518 -28.135027 817.25568 4283921493
135.36984 -28.107803 817.27136 4284250971
135.79709 -28.139206 817.25781 4284578653
136.28795 -28.109169 817.2663 4284317530
136.71605 -28.1348 817.242 4285039965
137.1985 -28.10635 817.23499 4285699172
137.62912 -28.131115 817.20825 4286685297
138.10719 -28.104374 817.19098 4287212155
138.54768 -28.13298 817.17413 4287805573
139.0248 -28.112272 817.1814 4288461712
139.47089 -28.133978 817.18219 4288330634
139.95175 -28.108629 817.20715 4288263564
140.39888 -28.129622 817.21814 4288592005
140.88007 -28.104027 817.242 4288854925
141.32727 -28.130257 817.25525 4288790661
141.80638 -28.11112 817.26562 4289053328
142.25027 -28.139639 817.26208 4288725382
142.72823 -28.117479 817.2652 4288920720
143.17259 -28.135668 817.24725 4288723073
143.64873 -28.107525 817.25275 4288459908
144.095 -28.129076 817.24847 4288986239
144.57182 -28.110256 817.25653 4289576841
145.02422 -28.138037 817.27106 4289052802
145.50294 -28.116421 817.28583 4289312139
145.95222 -28.133121 817.30212 4288721285
146.4371 -28.10655 817.33392 4288392329
146.88258 -28.134411 817.3457 4288261754
147.36827 -28.117239 817.36603 4289178502
147.81094 -28.145475 817.37701 4289047421
148.29382 -28.11352 817.3775 4288061310
148.73685 -28.12874 817.39331 4287209067
149.22153 -28.103901 817.40143 4287404661
149.66341 -28.135355 817.41486 4288193397
150.14847 -28.116573 817.42438 4288913535
150.58842 -28.144621 817.42468 4288257904
151.07777 -28.116936 817.45697 4287337328
151.52429 -28.137709 817.49457 4287535213
152.01537 -28.116655 817.53217 4288388214
152.46033 -28.148645 817.56226 4288127598
152.95337 -28.123655 817.60724 4287272045
153.40358 -28.145267 817.66791 4286352222
153.89832 -28.12175 817.7204 4286943589
154.34193 -28.1532 817.74762 4287272552
154.83353 -28.129705 817.78241 4286745966
155.27916 -28.152039 817.81885 4285235034
155.77359 -28.126696 817.85004 4285431131
156.21051 -28.153076 817.85571 4285560145
156.70076 -28.125713 817.86725 4284313675
157.13638 -28.152487 817.86694 4285234259
157.62605 -28.129105 817.85828 4287335525
158.05627 -28.157225 817.84424 4286809692
158.54446 -28.129972 817.84247 4284970052
158.98454 -28.156765 817.86566 4284971602
159.48143 -28.129454 817.88977 4286088542
159.92018 -28.155926 817.92328 4284641094
160.4211 -28.132212 817.97961 4283197236
160.86591 -28.160032 818.03217 4284770878
134.26543 -27.548464 816.74817 4287078780
134.81375 -27.6301 816.74921 4287144835
135.18903 -27.558292 816.76349 4287605121
135.7355 -27.635298 816.75024 4288062854
136.10873 -27.558054 816.75684 4288326531
136.65121 -27.63283 816.73419 4288326276
137.02394 -27.5515 816.73639 4287869055
137.56702 -27.628031 816.7215 4288394116
137.94031 -27.551901 816.72107 4288265094
138.48505 -27.633745 816.72028 4288725137
138.86548 -27.558523 816.74286 4289119377
139.41617 -27.634563 816.75946 4289510287
139.79829 -27.554304 816.7981 4289707401
140.35136 -27.629505 816.81964 4290294919
140.73051 -27.549553 816.84943 4290034819
141.28098 -27.630146 816.86523 4289967236
141.65556 -27.557455 816.88013 4289641603
142.20143 -27.640778 816.87531 4289837452
142.57704 -27.56572 816.8797 4289904524
143.12053 -27.639973 816.85748 4289507201
143.49638 -27.555714 816.86584 4288523123
144.04398 -27.63242 816.86469 4289178738
144.42227 -27.556452 816.87811 4288329075
144.97452 -27.640036 816.89642 4289115775
145.35283 -27.563662 816.91309 4288130939
145.90327 -27.638506 816.93372 4287731820
146.28712 -27.5553 816.96881 4287468905
146.83766 -27.637632 816.98523 4287928170
147.21857 -27.563395 817.01062 4287468644
147.7717 -27.644005 817.03314 4287727457
148.14709 -27.56362 817.04382 4286085975
148.70502 -27.637291 817.07336 4284576838
149.07938 -27.557434 817.0954 4283722306
149.63889 -27.637342 817.12134 4285297479
150.00897 -27.566408 817.13647 4286282835
150.56441 -27.644882 817.13568 4286544979
150.93661 -27.56645 817.16296 4284508997
151.49628 -27.642721 817.19885 4284575808
151.87109 -27.568336 817.22675 4285693006
152.42764 -27.649475 817.24512 4286415702
152.80331 -27.572178 817.27649 4284182086
153.36826 -27.64819 817.33569 4283000114
153.74644 -27.571438 817.38263 4283459389
154.30792 -27.651358 817.40851 4284773966
154.68034 -27.576284 817.43927 4284902993
155.24551 -27.653805 817.48285 4282473788
155.61896 -27.578854 817.51874 4282930490
156.1787 -27.655434 817.53009 4282997039
156.54782 -27.578548 817.54736 4281354283
157.10411 -27.65723 817.55328 4281883954
157.47162 -27.579967 817.5481 4284968265
158.02423 -27.658049 817.53296 4284510019
158.39276 -27.579042 817.53461 4282013745
