# .PCD v0.7 - Point Cloud Data file format
VERSION 0.7
FIELDS x y z rgb
SIZE 4 4 4 4
TYPE F F F U
COUNT 1 1 1 1
WIDTH 1148
HEIGHT 1
VIEWPOINT 0 0 0 1 0 0 0
POINTS 1148
DATA ascii
113.42399 -29.98019 818.34296 4282074423
113.8441 -30.002645 818.24725 4282074421
114.31447 -29.967611 818.11798 4282140204
118.05105 -29.980844 818.46643 4282798649
118.97136 -29.976618 818.45721 4282470964
119.40097 -30.010378 818.4386 4282535224
119.88964 -29.981207 818.43353 4282733115
120.31863 -30.010141 818.4118 4283061056
120.80804 -29.981697 818.41174 4283324734
121.23524 -30.010683 818.37756 4283193410
121.72545 -29.979658 818.37958 4283522369
122.15391 -30.010075 818.35742 4283456328
122.64627 -29.977962 818.36975 4283456584
123.08218 -30.006811 818.40063 4283325003
123.57385 -29.978861 818.4043 4283391562
123.99845 -30.010342 818.36316 4283326028
97.650345 -29.444189 818.17987 4282141248
98.177589 -29.49728 817.94379 4281748286
98.535706 -29.433544 817.73907 4282272319
99.068787 -29.507467 817.70197 4281813310
99.439796 -29.420408 817.61121 4281878332
99.974899 -29.494675 817.58734 4281681467
100.35395 -29.413654 817.57233 4281943867
100.89021 -29.48221 817.55115 4281813053
101.28008 -29.408192 817.62482 4281943868
101.82533 -29.491726 817.67267 4281681468
102.22536 -29.426441 817.82831 4282009405
102.80267 -29.515348 818.12823 4282010175
103.20678 -29.445036 818.31012 4282140989
103.79871 -29.527668 818.71082 4281943866
104.19912 -29.458281 818.87225 4281747258
104.74932 -29.527321 818.9494 4281944635
105.13786 -29.458403 819.01501 4282536002
105.66472 -29.532595 818.90533 4282537025
106.03187 -29.451189 818.80615 4282275394
106.5515 -29.520987 818.65692 4282801992
106.91672 -29.439775 818.52887 4283393103
107.43278 -29.51634 818.37433 4283985242
107.80212 -29.437401 818.25916 4284772191
108.31944 -29.514317 818.13287 4284181598
108.69532 -29.431408 818.05005 4284246875
109.2218 -29.50416 817.9726 4283656279
109.60123 -29.421642 817.93878 4283785552
110.13834 -29.496868 817.91791 4282931784
110.52059 -29.41868 817.9278 4281681978
111.06738 -29.498117 817.9577 4281286702
111.45071 -29.428638 817.99786 4280760364
111.99563 -29.508387 818.0108 4281286187
112.3677 -29.43375 817.97223 4281285934
112.90134 -29.502493 817.89996 4281614639
113.2636 -29.420956 817.79559 4281614899
113.79051 -29.488356 817.67517 4281746741
114.15079 -29.407648 817.55969 4281878070
114.68221 -29.48506 817.46045 4281813305
115.05034 -29.412935 817.41016 4282140730
115.59718 -29.486917 817.41748 4282272059
115.97597 -29.407858 817.44617 4282272059
116.53822 -29.486601 817.55481 4282010941
116.91895 -29.413927 817.60114 4282404158
117.4797 -29.499413 817.70471 4282142013
117.86669 -29.421938 817.78705 4282207549
118.42252 -29.492887 817.86023 4282077501
118.80832 -29.421173 817.93085 4282339390
119.36137 -29.501904 817.97998 4282471233
119.73753 -29.42638 817.98828 4282931014
120.28961 -29.509197 818.02533 4282801226
120.66584 -29.434299 818.03485 4283129163
121.21154 -29.506308 818.02716 4282867021
121.58684 -29.427481 818.03339 4283392078
122.13213 -29.501245 818.02026 4283261009
122.50799 -29.42668 818.03131 4283523154
123.05975 -29.509579 818.06012 4283129940
123.43402 -29.434359 818.06158 4283589973
123.97678 -29.507156 818.02655 4283853145
97.144997 -29.040287 817.18121 4283325515
97.6343 -29.02103 817.25189 4283588430
98.07502 -29.0525 817.27563 4283194702
98.558731 -29.019579 817.29504 4283260239
98.998016 -29.053032 817.30823 4282932045
99.47612 -29.024426 817.27655 4282669133
99.908554 -29.049698 817.24139 4282800202
100.39075 -29.0119 817.23022 4282800201
100.82247 -29.039288 817.19733 4282865738
101.31648 -29.017033 817.28021 4282734664
101.75325 -29.055103 817.29474 4282865225
102.25558 -29.030939 817.42706 4282733638
102.69926 -29.065294 817.57544 4282996555
103.19798 -29.03686 817.7146 4283127624
103.66911 -29.079269 817.92065 4282931273
104.16946 -29.047531 818.06476 4282930756
104.61784 -29.074085 818.1203 4282799433
105.11404 -29.048103 818.20996 4282996298
105.54514 -29.07686 818.17352 4282799432
106.02934 -29.047068 818.16772 4282406465
106.45346 -29.071131 818.08051 4282734404
106.92485 -29.039255 817.99463 4283063879
107.34777 -29.066877 817.88116 4283917653
107.81683 -29.037128 817.77924 4284508246
108.24035 -29.065161 817.67224 4284246364
108.71178 -29.032724 817.5863 4284180055
109.13926 -29.055565 817.51306 4283523152
109.61955 -29.021399 817.47211 4283127619
110.05005 -29.048723 817.44373 4282666817
110.53572 -29.020058 817.44043 4282009912
110.97115 -29.052557 817.44928 4281482803
111.46052 -29.025791 817.47144 4281089327
111.89548 -29.059557 817.48022 4281548338
112.3787 -29.02993 817.45465 4281680177
112.80536 -29.058094 817.40662 4281811508
113.28259 -29.024117 817.33502 4281812275
113.70618 -29.048822 817.26715 4281944119
114.18375 -29.015476 817.19672 4282206778
114.60997 -29.041403 817.14752 4282206780
115.09293 -29.019508 817.12036 4282403645
115.52808 -29.052563 817.13464 4282534718
116.02065 -29.01309 817.17352 4282469693
116.46601 -29.042965 817.26208 4282338622
116.96027 -29.022099 817.31 4282601280
117.40447 -29.05858 817.38806 4282666818
117.90429 -29.026838 817.46722 4282601791
118.3453 -29.057724 817.52838 4282470718
118.84402 -29.029911 817.59772 4282668353
119.28233 -29.062321 817.63989 4283128137
119.77098 -29.034716 817.65515 4283327052
120.20994 -29.064936 817.68695 4283261774
120.69615 -29.036741 817.70087 4283393618
121.13103 -29.064556 817.68872 4283853399
121.61666 -29.036245 817.69635 4284049747
122.05135 -29.065559 817.6842 4283786581
122.53822 -29.038622 817.69672 4283524693
122.97722 -29.067158 817.71576 4283590742
123.4631 -29.037428 817.72009 4283985243
123.89444 -29.064793 817.68927 4284116572
97.114861 -28.538658 816.75238 4284182106
97.497826 -28.471334 816.81702 4284116568
98.037277 -28.547281 816.84711 4284115800
98.431984 -28.477789 816.89374 4283919192
98.964134 -28.554394 816.90985 4283984731
99.347656 -28.473312 816.88574 4284050011
99.877167 -28.549715 816.86218 4283984217
100.26227 -28.469152 816.85358 4284050007
100.79093 -28.544029 816.8219 4284049493
101.17866 -28.467655 816.83673 4283918932
101.71294 -28.546545 816.84393 4284313432
102.10403 -28.471388 816.88794 4283787605
102.64341 -28.553116 816.93353 4284049236
103.03637 -28.479479 817.00897 4283787862
103.5825 -28.559525 817.08838 4283984984
103.97781 -28.484701 817.18512 4283721555
104.52125 -28.56171 817.24243 4283458132
104.91376 -28.484106 817.30042 4283588950
105.45376 -28.562119 817.32281 4282998866
105.84067 -28.48373 817.34174 4282539341
106.37198 -28.558622 817.31232 4282409035
106.75132 -28.479568 817.27588 4282735949
107.27691 -28.557236 817.20093 4283328339
107.6531 -28.478691 817.14044 4283722071
108.17755 -28.553942 817.05579 4283985502
108.55367 -28.474161 816.99731 4284246620
109.08346 -28.548439 816.93036 4282999376
109.46012 -28.468412 816.89935 4282209349
109.99669 -28.540226 816.86139 4282274113
110.37302 -28.463676 816.85089 4282141761
110.91341 -28.54258 816.83838 4281747774
111.29134 -28.470528 816.84369 4281878077
111.83228 -28.547018 816.83264 4281681980
112.20878 -28.470219 816.82971 4281813051
112.74984 -28.54479 816.8158 4281879099
113.12372 -28.468357 816.79816 4281813563
113.66385 -28.543177 816.77606 4281880382
114.03811 -28.466408 816.76367 4282207807
114.58123 -28.541338 816.75671 4282076480
114.95839 -28.466024 816.76813 4282469698
115.50523 -28.543707 816.78497 4282273602
115.88422 -28.468626 816.81189 4282339394
116.43899 -28.545971 816.88068 4281881668
116.81927 -28.472948 816.91797 4282602567
117.37259 -28.552357 816.97723 4282537799
117.75493 -28.476805 817.02692 4282603335
118.30475 -28.552948 817.07635 4282408261
118.68938 -28.478041 817.12665 4282669640
119.2355 -28.558064 817.16357 4283064648
119.61585 -28.482553 817.18372 4283263313
120.16121 -28.561853 817.21637 4283396440
120.54216 -28.48427 817.23889 4284118620
121.08575 -28.560562 817.24371 4284447328
121.46484 -28.483517 817.25452 4284249436
122.0071 -28.561256 817.24817 4283920216
122.38627 -28.485937 817.25952 4283657818
122.92923 -28.564705 817.25696 4283593563
123.3066 -28.486683 817.2583 4284117597
123.8468 -28.562048 817.23499 4284248415
97.042519 -28.094215 816.33759 4283987295
97.522087 -28.073105 816.38934 4284249694
97.969559 -28.103889 816.41327 4284381023
98.449409 -28.077961 816.46149 4284249695
98.895439 -28.105951 816.4765 4284446562
99.371239 -28.07814 816.4884 4284314982
99.812302 -28.103455 816.4671 4284643172
100.28397 -28.074266 816.4671 4285037158
100.72636 -28.098509 816.43286 4284971620
101.19811 -28.073132 816.4325 4284840035
101.6407 -28.098536 816.40234 4284972646
102.11143 -28.075474 816.41003 4284775274
102.5582 -28.100754 816.39301 4284709222
103.03533 -28.073374 816.42554 4284578409
103.48339 -28.103224 816.44604 4284447331
103.96495 -28.080929 816.50958 4284315232
104.41476 -28.108398 816.5473 4284380257
104.89944 -28.081722 816.61261 4283985760
105.34676 -28.109842 816.64996 4284051296
105.82853 -28.083582 816.69141 4283919964
106.2706 -28.107824 816.68829 4283525464
106.7447 -28.077957 816.67194 4283066451
107.1804 -28.10471 816.61926 4284051032
107.64957 -28.077953 816.5647 4284511067
108.08229 -28.103474 816.49097 4284511331
108.55048 -28.074503 816.42712 4284444768
108.9845 -28.098331 816.36664 4283655506
109.45945 -28.066011 816.33069 4282801218
109.89399 -28.091593 816.29724 4282864967
110.37496 -28.065371 816.28394 4282668616
110.80918 -28.096874 816.27063 4282536261
111.29308 -28.069199 816.27655 4282340419
111.72708 -28.098969 816.26514 4282404928
112.20747 -28.068802 816.26154 4282340414
112.64401 -28.095936 816.25183 4282602305
113.12452 -28.068932 816.2627 4282340668
113.56568 -28.096655 816.27112 4282471231
114.04816 -28.070713 816.29382 4282799935
114.49115 -28.098806 816.31641 4282864452
114.97707 -28.071939 816.36127 4282930243
115.42171 -28.100288 816.39691 4283062087
115.9085 -28.073687 816.44568 4283128898
116.35136 -28.103579 816.4718 4282932807
116.83681 -28.080032 816.50806 4283130184
117.27901 -28.108219 816.52917 4283392333
117.76369 -28.078091 816.55853 4283458635
118.2058 -28.106304 816.57898 4283458894
118.69136 -28.081152 816.61371 4283262793
119.13292 -28.108145 816.63129 4283656784
119.61642 -28.083752 816.66644 4283987542
120.05984 -28.111498 816.68079 4284054108
120.54044 -28.086361 816.71326 4284317794
120.98515 -28.11132 816.71893 4284711521
121.46354 -28.085386 816.73438 4285105252
121.90659 -28.11133 816.72894 4285038437
122.38468 -28.089254 816.73944 4284710755
122.82765 -28.115465 816.73547 4284578655
123.30511 -28.087591 816.74127 4284775518
123.74563 -28.110243 816.72137 4285168484
97.380348 -27.518677 815.83173 4284514404
97.90593 -27.599821 815.836 4285170280
98.29966 -27.522114 815.86426 4284907623
98.827049 -27.600668 815.86621 4285564014
99.216927 -27.523201 815.88202 4285497966
99.748177 -27.599884 815.87537 4285366123
100.13657 -27.52037 815.88068 4285366890
100.66624 -27.595377 815.8562 4285956714
101.05265 -27.515678 815.85242 4285695595
101.58067 -27.591122 815.8288 4286023026
101.96721 -27.514061 815.82745 4286285684
102.49302 -27.594938 815.80365 4286022261
102.87852 -27.519218 815.81244 4286417525
103.40995 -27.598873 815.81323 4285761138
103.79826 -27.523764 815.84381 4285433195
104.33445 -27.601929 815.86243 4285826415
104.72501 -27.524063 815.89557 4285170284
105.26285 -27.600861 815.91895 4285169774
105.65163 -27.522404 815.94531 4285235821
106.18418 -27.598852 815.94385 4285037416
106.5675 -27.51963 815.93085 4284971621
107.09507 -27.598234 815.88861 4285563757
107.47483 -27.520807 815.84863 4285236075
108.00091 -27.595375 815.79218 4284842350
108.37964 -27.514175 815.74847 4285365867
108.91012 -27.590626 815.70087 4284315232
109.29092 -27.512159 815.68091 4283131730
109.82549 -27.587708 815.65637 4282935121
110.20525 -27.511734 815.65387 4283523924
110.74237 -27.588196 815.64667 4282801740
111.12361 -27.513191 815.65613 4283064140
111.66137 -27.591005 815.65173 4282802761
112.04029 -27.515413 815.65918 4282999884
112.58099 -27.590479 815.66046 4283001421
112.96204 -27.514919 815.68579 4282934347
113.50545 -27.592155 815.70239 4282607178
113.88689 -27.518179 815.7345 4283261773
114.43213 -27.593317 815.76123 4283656015
114.81445 -27.515789 815.80054 4283917394
115.36113 -27.59391 815.83496 4283787598
115.74275 -27.519699 815.87091 4283526738
116.28833 -27.596447 815.89563 4283857494
116.66948 -27.523329 815.9267 4284118873
117.21522 -27.600096 815.9502 4284381018
117.59586 -27.524281 815.98016 4284774750
118.1409 -27.602049 816.01147 4284382301
118.52472 -27.525862 816.04919 4284644189
119.06773 -27.606071 816.08136 4284448350
119.45152 -27.531113 816.11798 4284908388
119.99373 -27.609655 816.14716 4284778856
120.37753 -27.531292 816.18054 4285565291
120.92017 -27.609369 816.19617 4285566317
121.30109 -27.533394 816.20996 4286222703
121.84145 -27.611673 816.20837 4286222962
122.22141 -27.534464 816.21509 4286813044
122.76181 -27.611996 816.2124 4286091632
123.14088 -27.533731 816.21558 4286287725
123.67992 -27.610195 816.20245 4286419308
97.382584 -27.123627 815.30682 4285171817
97.836601 -27.149857 815.32062 4285500271
98.305405 -27.125813 815.35327 4285433711
98.759224 -27.149693 815.36737 4285828471
99.227943 -27.126179 815.3974 4285958771
99.680801 -27.15164 815.40509 4285630834
100.14751 -27.126871 815.41925 4285301871
100.59815 -27.148369 815.40668 4285432684
101.06601 -27.119156 815.40814 4285499251
101.5138 -27.139635 815.39496 4285302383
101.97884 -27.117685 815.39081 4285432951
102.42705 -27.146273 815.3634 4286156151
102.89357 -27.12603 815.36584 4286418553
103.34341 -27.152275 815.35754 4286090865
103.81056 -27.128784 815.38245 4285827952
104.26458 -27.152166 815.38843 4285894001
104.73502 -27.128012 815.41693 4285500276
105.188 -27.150364 815.43414 4285631858
105.6581 -27.124929 815.45685 4285959801
106.1074 -27.1502 815.44891 4285630062
106.57188 -27.127052 815.42816 4285432937
107.01293 -27.150955 815.37811 4286418032
107.47672 -27.121655 815.32953 4286550387
107.9131 -27.144901 815.26727 4286157169
108.37972 -27.117676 815.21753 4286287727
108.81536 -27.145689 815.17218 4285958508
109.29208 -27.117531 815.15527 4284841823
109.73161 -27.144405 815.14172 4284512347
110.21207 -27.115267 815.15027 4284249948
110.65144 -27.143381 815.15881 4284511066
111.13446 -27.115532 815.18347 4284840279
111.57378 -27.146572 815.1955 4285103200
112.05376 -27.120281 815.21295 4285104483
112.49285 -27.150076 815.22418 4284907873
112.97437 -27.12166 815.25232 4284777055
113.41703 -27.149849 815.271 4285301861
113.89861 -27.125059 815.29761 4285432419
114.34393 -27.152037 815.31799 4286088556
114.82397 -27.12121 815.34985 4285628778
115.27318 -27.145252 815.37939 4285826927
115.75114 -27.123144 815.41187 4285632114
116.20183 -27.151367 815.43689 4285633647
116.67772 -27.129 815.47052 4285896054
117.1293 -27.153469 815.50177 4286486902
117.60634 -27.128088 815.54089 4286224248
118.05656 -27.1548 815.58105 4286356082
118.5375 -27.132236 815.62793 4286356083
118.98475 -27.161627 815.66589 4286684533
119.4656 -27.138306 815.71002 4286552948
119.91227 -27.1665 815.74304 4286749812
120.39154 -27.140902 815.77795 4286749299
120.83847 -27.166561 815.79486 4287537275
121.31483 -27.140852 815.80634 4287865723
121.7587 -27.166945 815.80328 4287932543
122.23408 -27.142412 815.80536 4288260224
122.67695 -27.168327 815.79736 4288457602
123.15208 -27.140675 815.7984 4288391294
123.594 -27.164791 815.78558 4288326527
97.24659 -26.571102 814.78497 4285370482
97.77153 -26.652809 814.80286 4286158715
98.166687 -26.575148 814.83527 4286617469
98.69413 -26.655056 814.85767 4286223996
99.090202 -26.575903 814.89423 4286290552
99.622932 -26.652365 814.9129 4286222711
100.01667 -26.572912 814.93787 4285695344
100.54824 -26.648596 814.93488 4285364327
100.93965 -26.567858 814.95251 4285036646
101.46971 -26.641563 814.94788 4284642916
101.85601 -26.566082 814.95087 4285496680
102.37757 -26.651346 814.92175 4286219116
102.76192 -26.577147 814.92029 4285630057
103.28662 -26.655369 814.90271 4286351980
103.67329 -26.57918 814.91534 4286025070
104.20155 -26.657581 814.90778 4286222709
104.59119 -26.577663 814.92242 4286485111
105.1242 -26.652561 814.92596 4286419577
105.51228 -26.573061 814.9361 4286353782
106.04007 -26.652428 814.9184 4285958506
106.42319 -26.574883 814.8913 4286483308
106.94582 -26.651255 814.83118 4287600503
107.32549 -26.570599 814.77966 4288325248
107.84795 -26.644655 814.71552 4287933058
108.22803 -26.564335 814.67108 4287669885
108.75666 -26.643082 814.62823 4288324478
109.1399 -26.566172 814.61627 4287995514
109.67479 -26.641954 814.61121 4286945395
110.05829 -26.565285 814.62836 4285960043
110.59682 -26.64221 814.64868 4286352483
110.98166 -26.56629 814.67694 4286222696
111.5212 -26.64554 814.70142 4287403891
111.90356 -26.570515 814.7276 4288258943
112.44504 -26.647287 814.75079 4287865987
112.82844 -26.574167 814.78424 4288064897
113.37161 -26.65263 814.81543 4288917129
113.75674 -26.57509 814.85016 4289048196
114.29832 -26.64967 814.88342 4289766793
114.68554 -26.570679 814.91791 4289046916
115.22904 -26.647539 814.95825 4288913286
115.61559 -26.569399 814.99286 4289376136
116.15632 -26.651917 815.02802 4288915339
116.5429 -26.578737 815.05994 4289114503
117.08448 -26.65551 815.09821 4289964427
117.47198 -26.576986 815.13861 4289180292
118.01078 -26.65826 815.18976 4289440900
118.40192 -26.581472 815.23621 4288919423
118.94024 -26.665194 815.28302 4289902215
119.32879 -26.590605 815.32611 4289444997
119.86818 -26.673151 815.36664 4289574536
120.25322 -26.595741 815.39899 4288525187
120.79424 -26.671535 815.41821 4289312133
121.17555 -26.591986 815.4259 4289116806
121.71311 -26.67066 815.42102 4289576073
122.09333 -26.594818 815.41949 4289511304
122.62968 -26.671661 815.40637 4290560141
123.00925 -26.591063 815.40259 4289708170
123.54562 -26.668634 815.38928 4290100878
123.9275 -26.591194 815.39893 4289971345
97.259033 -26.1805 814.36127 4286290812
97.722679 -26.202126 814.38385 4286554496
98.182373 -26.182693 814.42017 4286226310
98.646576 -26.207027 814.45074 4286095485
99.110817 -26.183561 814.49524 4286948228
99.57148 -26.202976 814.52405 4285830519
100.04002 -26.178638 814.55621 4285301107
100.49289 -26.202152 814.56531 4284904550
100.96587 -26.174936 814.58783 4283393619
101.41256 -26.20042 814.59357 4283195724
101.88094 -26.179016 814.5968 4283460174
102.32595 -26.207952 814.57318 4284575832
102.78853 -26.185364 814.56873 4285036380
103.23936 -26.209003 814.55182 4285957482
103.69849 -26.187929 814.56146 4286352749
104.15609 -26.20911 814.55383 4286354806
104.61549 -26.186983 814.56812 4286616698
105.07484 -26.206491 814.57129 4286813819
105.534 -26.183344 814.57971 4286550648
105.98717 -26.206297 814.56012 4286483820
106.44364 -26.184376 814.52899 4287207531
106.88575 -26.207418 814.46466 4289179524
107.34394 -26.180168 814.40314 4290296468
107.7794 -26.203201 814.33337 4289773973
108.24445 -26.173428 814.28107 4290100631
108.68037 -26.201981 814.23669 4290035604
109.15602 -26.174706 814.22095 4289639822
109.59728 -26.204081 814.21753 4288917894
110.07842 -26.173733 814.23926 4288129154
110.52047 -26.203495 814.26733 4287931254
111.00401 -26.176107 814.30328 4288392058
111.44619 -26.206621 814.33704 4288918146
111.92709 -26.179325 814.37128 4289443985
112.3718 -26.210567 814.40375 4289774739
112.85073 -26.185394 814.43988 4290036633
113.30161 -26.214272 814.47913 4289381517
113.78111 -26.185596 814.51556 4289182099
114.23441 -26.207254 814.5553 4289379210
114.71198 -26.179539 814.58929 4289048720
115.1658 -26.202391 814.63562 4288260985
115.64418 -26.177084 814.67157 4288325507
116.09695 -26.210051 814.71405 4287931509
116.57206 -26.190826 814.74561 4288258178
117.02511 -26.213617 814.79004 4288259449
117.50264 -26.186121 814.83398 4288062078
117.95446 -26.212486 814.89026 4288064115
118.43291 -26.191359 814.94012 4288393085
118.88094 -26.224417 814.98792 4288985723
119.3616 -26.202082 815.03314 4289838988
119.80588 -26.23443 815.07257 4289971340
120.28658 -26.207163 815.1004 4289839250
120.72763 -26.234968 815.11688 4289774988
121.2075 -26.203388 815.11835 4289578380
121.6446 -26.230276 815.11011 4289578635
122.12396 -26.202444 815.10474 4289972112
122.55934 -26.232241 815.0871 4290432404
123.03882 -26.20244 815.08154 4290168979
123.47461 -26.228716 815.06958 4290037906
123.95741 -26.199303 815.08179 4290300054
97.137215 -25.633114 813.94318 4287079298
97.668991 -25.710855 813.96265 4287276937
98.059402 -25.634895 813.99908 4287014020
98.59597 -25.710331 814.03473 4286290300
98.990486 -25.632633 814.08582 4286159223
99.530815 -25.707617 814.12231 4285630067
99.922859 -25.631628 814.16644 4285495915
100.46258 -25.70558 814.18542 4284246617
100.85014 -25.629637 814.22345 4281946949
101.38763 -25.704294 814.23615 4281816373
101.76687 -25.632423 814.2489 4281160507
102.29446 -25.713335 814.22693 4283000648
102.67297 -25.641371 814.22595 4284511580
103.19951 -25.716932 814.20367 4285761643
103.57971 -25.640013 814.21112 4286223474
104.10916 -25.716587 814.19666 4286619006
104.493 -25.640177 814.20807 4287339391
105.02641 -25.71567 814.2052 4287338622
105.40946 -25.638359 814.21082 4286944889
105.94024 -25.714653 814.18921 4286486121
106.31901 -25.6374 814.16144 4286947951
106.84437 -25.712675 814.09485 4290428298
107.21894 -25.635702 814.03827 4291547290
107.74435 -25.708166 813.96729 4291021990
108.11942 -25.628456 813.92169 4291940515
108.64857 -25.703819 813.87708 4291283359
109.02972 -25.62694 813.86237 4290299283
109.56305 -25.706095 813.86163 4290559634
109.94856 -25.631615 813.88361 4290099853
110.48627 -25.708668 813.91522 4289048960
110.8733 -25.631361 813.94855 4289050239
111.41243 -25.709507 813.98694 4290296966
111.79733 -25.634834 814.02283 4290758543
112.33873 -25.714699 814.06128 4291218585
112.72642 -25.639156 814.09833 4290694803
113.27082 -25.716665 814.1485 4289903498
113.66083 -25.639366 814.19293 4288654200
114.20424 -25.714127 814.24628 4288453999
114.59545 -25.631273 814.2879 4287074659
115.14098 -25.707567 814.3454 4286677841
115.52821 -25.634462 814.38684 4284840008
116.07066 -25.720142 814.43652 4285626183
116.4565 -25.646297 814.46686 4285561170
116.99934 -25.72114 814.51514 4285430093
117.38708 -25.641588 814.55878 4285562194
117.92947 -25.721064 814.6203 4286350928
118.31786 -25.646067 814.6687 4286483541
118.85905 -25.729485 814.72046 4288191585
119.24487 -25.657522 814.76508 4288916594
119.78659 -25.73818 814.80658 4290230918
120.16763 -25.662415 814.83148 4291283603
120.70729 -25.738426 814.84491 4290629012
121.08492 -25.660833 814.84424 4289710988
121.62319 -25.736095 814.83112 4289710987
122.00008 -25.658199 814.82513 4289908112
122.53697 -25.734541 814.80157 4290236307
122.91319 -25.657742 814.79401 4290366866
123.45167 -25.733812 814.77966 4290366610
123.83109 -25.656647 814.79321 4290302100
97.167679 -25.242544 813.60944 4287669637
97.630798 -25.265829 813.63098 4286949251
98.092926 -25.241306 813.66772 4286750084
98.55513 -25.262321 813.70691 4285763701
99.025589 -25.240534 813.76013 4285892715
99.481651 -25.266644 813.80084 4284577380
99.9599 -25.239969 813.84821 4283393110
100.40623 -25.267488 813.87537 4282799434
100.88943 -25.23975 813.91638 4281420601
101.32912 -25.271551 813.93506 4281747000
101.80391 -25.245174 813.94928 4281751093
102.24426 -25.272264 813.93579 4283393868
102.70924 -25.248981 813.93372 4284775522
103.15746 -25.274788 813.91821 4286024561
103.61507 -25.250378 813.92328 4286749306
104.07272 -25.270428 813.91498 4286882430
104.53152 -25.249506 813.92627 4287340417
104.99015 -25.271477 813.92798 4287864965
105.44859 -25.249908 813.93335 4287078011
105.89892 -25.274082 813.91699 4287275379
106.35824 -25.249395 813.88934 4288000375
106.7951 -25.27463 813.83203 4289774729
107.259 -25.244673 813.77307 4291285401
107.68632 -25.272362 813.71002 4291025056
108.16013 -25.239262 813.66083 4290760350
108.58759 -25.272131 813.62103 4290760092
109.06837 -25.240261 813.60315 4290824856
109.50388 -25.272243 813.60248 4290759321
109.98728 -25.241209 813.62262 4290299029
110.42629 -25.274225 813.6524 4289773448
110.91217 -25.24477 813.68518 4289970567
111.35158 -25.27606 813.72363 4290430091
111.83893 -25.245358 813.76263 4290824078
112.28105 -25.278543 813.80219 4290629782
112.769 -25.249002 813.84119 4290626451
113.21617 -25.2785 813.89557 4288195193
113.70586 -25.245501 813.94604 4285630806
114.15572 -25.271688 814.00452 4284640840
114.64278 -25.246637 814.05048 4283326779
115.09035 -25.277603 814.11176 4283388468
115.57718 -25.248531 814.15692 4282929186
116.02339 -25.278841 814.2099 4283585077
116.5056 -25.253212 814.23834 4283915320
116.9512 -25.281305 814.28766 4283324474
117.43662 -25.255257 814.33209 4283325749
117.88097 -25.286716 814.39404 4284046905
118.36481 -25.25935 814.44434 4284377396
118.80501 -25.291588 814.49591 4286545490
119.29085 -25.268402 814.54218 4287993439
119.72643 -25.304161 814.58258 4289771139
120.21139 -25.272469 814.60352 4291217301
120.64284 -25.304775 814.61584 4290761624
121.13 -25.272375 814.6098 4290433426
121.55716 -25.304697 814.59509 4289909139
122.04417 -25.2707 814.58484 4289778839
122.46933 -25.301464 814.55988 4289778064
122.95662 -25.268486 814.55023 4289843348
123.38318 -25.302437 814.53821 4290434202
123.87503 -25.269512 814.55444 4290566041
97.05687 -24.696846 813.28528 4287145087
97.588493 -24.774414 813.30511 4286488707
97.981201 -24.698231 813.34357 4286419578
98.519333 -24.773243 813.38824 4284448101
98.915863 -24.696308 813.44537 4283461723
99.455116 -24.77309 813.49066 4282411087
99.84922 -24.697224 813.54321 4282013772
100.38849 -24.772835 813.57776 4281423428
100.77622 -24.701509 813.62177 4281355074
101.31261 -24.778746 813.6438 4281552954
101.69177 -24.704901 813.65881 4282014279
102.22079 -24.780869 813.65002 4283922783
102.59885 -24.707218 813.64996 4285958257
103.12623 -24.782169 813.63568 4286943357
103.50542 -24.705793 813.64075 4288062341
104.03581 -24.782108 813.63586 4287934095
104.41962 -24.706175 813.64923 4287933065
104.95415 -24.783531 813.65796 4288456837
105.3372 -24.709126 813.6651 4287605121
105.86936 -24.786798 813.65765 4288131711
106.24901 -24.709143 813.63849 4288263551
106.77626 -24.781343 813.58954 4289642627
107.15171 -24.702021 813.54169 4290237582
107.67775 -24.776892 813.48145 4291222938
108.05363 -24.699537 813.43988 4290696856
108.58266 -24.775677 813.40106 4290564760
108.96149 -24.699858 813.38373 4291416988
109.49603 -24.776073 813.38287 4291087768
109.87868 -24.701397 813.39844 4290628242
110.4177 -24.779696 813.42572 4290299787
110.80153 -24.704069 813.45325 4289905288
111.34258 -24.779243 813.49036 4290496135
111.72744 -24.703146 813.52734 4290431883
112.2691 -24.780977 813.56781 4290497687
112.65897 -24.705313 813.6059 4290494349
113.20493 -24.782156 813.66656 4287143279
113.59753 -24.706053 813.71948 4283854153
114.14333 -24.785046 813.78516 4282276145
114.53612 -24.707167 813.83331 4281220397
115.08366 -24.781881 813.89777 4280303390
115.46976 -24.708017 813.94312 4280301346
116.01376 -24.78779 813.99457 4281288746
116.39713 -24.712137 814.02008 4282273335
116.94102 -24.788399 814.06732 4281160501
117.32685 -24.714567 814.10925 4281748276
117.86802 -24.795609 814.17139 4282012973
118.25523 -24.7211 814.21954 4282144051
118.79495 -24.801109 814.27399 4284774211
119.18047 -24.724516 814.3208 4286483806
119.71964 -24.803562 814.36249 4289049986
120.09953 -24.729128 814.38306 4291219092
120.63845 -24.806606 814.39313 4291220638
121.01528 -24.73011 814.38861 4290959514
121.55274 -24.806158 814.37134 4290173083
121.929 -24.729525 814.36346 4290304156
122.46485 -24.805069 814.336 4290434971
122.84122 -24.728935 814.32965 4289909397
123.37984 -24.804922 814.31927 4290171540
123.76004 -24.727591 814.33856 4289910166
97.096001 -24.305559 813.02228 4287011967
97.55854 -24.329222 813.04144 4286356604
98.02063 -24.309015 813.07953 4286155889
98.483025 -24.333263 813.12421 4285036906
98.95385 -24.308756 813.18182 4284051539
99.409988 -24.334101 813.22797 4282999372
99.886124 -24.308605 813.28253 4282475595
100.33626 -24.337156 813.32166 4282605390
100.81446 -24.314482 813.36566 4282540368
101.25964 -24.34973 813.38983 4282801231
101.72887 -24.324053 813.40399 4282870350
102.17525 -24.345343 813.40021 4284711011
102.63754 -24.315556 813.39911 4287140473
103.08619 -24.339676 813.38995 4288193164
103.5461 -24.317341 813.39368 4288652678
103.99899 -24.341413 813.39526 4288262286
104.4637 -24.316959 813.40991 4288327569
104.91807 -24.343561 813.4256 4288327821
105.38264 -24.323002 813.43683 4287869064
105.82943 -24.350906 813.43964 4288000132
106.29646 -24.320797 813.427 4288001929
106.73309 -24.346069 813.39447 4289315211
107.20196 -24.315947 813.3526 4290827923
107.62832 -24.348438 813.30743 4290764951
108.10592 -24.314529 813.26703 4290829724
108.53424 -24.345739 813.23547 4290763674
109.01485 -24.312754 813.21674 4291485088
109.44698 -24.346527 813.21558 4291220634
109.93227 -24.315422 813.22791 4290957463
110.36674 -24.350086 813.24988 4290563219
110.85465 -24.317354 813.27515 4290037390
111.29013 -24.349222 813.30804 4290496912
111.77992 -24.315699 813.34631 4291416208
112.22158 -24.347 813.38257 4290695065
112.70928 -24.317673 813.42279 4290492559
113.15959 -24.346813 813.47998 4287928434
113.64714 -24.318859 813.53815 4285428292
114.10015 -24.347092 813.59985 4283846458
114.58475 -24.323309 813.65149 4281680417
115.03458 -24.354231 813.71088 4281678373
115.51857 -24.324711 813.75763 4281615137
115.96378 -24.352325 813.80353 4282601016
116.44521 -24.325233 813.8277 4283390267
116.8893 -24.35568 813.86957 4282602556
117.37474 -24.331118 813.91241 4282208816
117.82042 -24.362213 813.96985 4282863156
118.30196 -24.335686 814.02069 4282867248
118.74454 -24.364666 814.07507 4284771139
119.22861 -24.336908 814.12744 4286419287
119.66689 -24.368706 814.17151 4288984958
120.14898 -24.341146 814.19415 4291349909
120.58025 -24.375233 814.2063 4291287970
121.06744 -24.342421 814.20245 4291287964
121.49422 -24.376223 814.18738 4290238619
121.98088 -24.34314 814.17627 4290434718
122.40546 -24.374811 814.15149 4290631584
122.89302 -24.341995 814.1424 4290040726
123.31989 -24.375959 814.13611 4289646741
123.81256 -24.341703 814.1582 4290040987
97.526642 -23.842081 812.80164 4286357637
97.919258 -23.767115 812.83948 4285895285
98.457397 -23.844336 812.88751 4284449637
98.851067 -23.768839 812.94305 4284251749
99.390236 -23.84503 812.99231 4283988831
99.782303 -23.771219 813.04492 4283331680
100.32185 -23.848074 813.09015 4283397728
100.707 -23.778114 813.12732 4283593058
101.24207 -23.859186 813.15234 4283199577
101.62133 -23.785372 813.16144 4283464034
102.15229 -23.853888 813.16089 4284978549
102.53055 -23.774782 813.15894 4287079811
103.06076 -23.850567 813.15381 4288195721
103.44005 -23.776325 813.15808 4287737737
103.97469 -23.852541 813.16882 4288263314
104.35845 -23.778276 813.18555 4289181849
104.89561 -23.857437 813.21503 4288722838
105.27923 -23.784912 813.23041 4288459919
105.81448 -23.860407 813.2464 4288459406
106.19561 -23.781464 813.24231 4289246609
106.72702 -23.855413 813.22504 4288724108
107.10447 -23.778578 813.19525 4289975186
107.63335 -23.853867 813.15845 4290436766
108.00994 -23.777441 813.125 4291158429
108.54044 -23.852762 813.09698 4290829979
108.91882 -23.776237 813.07898 4291025819
109.45299 -23.852734 813.07629 4291613848
109.83421 -23.778162 813.08282 4291220890
110.37172 -23.854443 813.10034 4290762140
110.75475 -23.778957 813.12164 4290957466
111.29456 -23.854885 813.15338 4290301333
111.67956 -23.778517 813.19012 4290827672
112.22018 -23.854168 813.22626 4290368160
112.61045 -23.77652 813.2666 4290954904
113.15546 -23.854094 813.32349 4288325505
113.54607 -23.782349 813.37769 4285956706
114.09298 -23.862036 813.4361 4284050760
114.48085 -23.786877 813.48169 4282144835
115.02844 -23.861332 813.53418 4282671425
115.40957 -23.788992 813.57416 4283064393
115.95591 -23.863708 813.61243 4283395410
116.33395 -23.788082 813.63354 4283526740
116.88049 -23.864712 813.67108 4282740817
117.2614 -23.794704 813.71021 4282934863
117.80796 -23.872601 813.76453 4283133001
118.19025 -23.799072 813.81299 4284313171
118.73464 -23.873997 813.87146 4285498454
119.11828 -23.794922 813.92346 4287603566
119.66003 -23.871235 813.9704 4289448075
120.0406 -23.797174 813.99554 4291156119
120.58009 -23.877899 814.01263 4290762650
120.9577 -23.804131 814.01385 4290895772
121.49553 -23.880161 814.00159 4290305182
121.87172 -23.803183 813.99408 4290960547
122.4081 -23.879145 813.97217 4290434975
122.78496 -23.804159 813.96869 4290172571
123.32457 -23.879749 813.9671 4289320090
123.70552 -23.802452 813.99213 4290500255
97.041382 -23.379993 812.57654 4286354805
97.503586 -23.400782 812.59741 4286816894
97.965965 -23.378828 812.63702 4286882685
98.428291 -23.403749 812.68622 4286226298
98.896431 -23.382627 812.74432 4287275909
99.355423 -23.410847 812.79474 4286619014
99.8265 -23.388342 812.85052 4285632382
100.28004 -23.417841 812.89813 4284713588
100.75121 -23.395981 812.93213 4283860589
101.19907 -23.429459 812.95551 4284384363
101.66577 -23.397367 812.95837 4284782194
102.1103 -23.4161 812.95703 4286294403
102.57606 -23.385592 812.94916 4287477911
103.02 -23.413759 812.94379 4287937685
103.48718 -23.389019 812.94482 4288330900
103.93335 -23.41894 812.9588 4288264342
104.40629 -23.392611 812.97681 4288461212
104.85505 -23.42285 813.0141 4288855192
105.32909 -23.397081 813.03699 4289313426
105.77341 -23.42872 813.06543 4289378453
106.24849 -23.397509 813.07214 4288722830
106.68629 -23.424801 813.07251 4289315468
107.16109 -23.392591 813.0542 4290434959
107.59018 -23.425518 813.03253 4290502548
108.06924 -23.3934 813.00305 4290633628
108.49847 -23.426876 812.98181 4290698395
108.97932 -23.392273 812.96301 4291747232
109.4108 -23.42408 812.95996 4292074918
109.89477 -23.392874 812.96368 4291681698
110.32767 -23.427925 812.97668 4291091868
110.81496 -23.394398 812.99805 4290697886
111.2497 -23.426802 813.0271 4290828956
111.73978 -23.394003 813.0683 4291288990
112.17819 -23.424374 813.10327 4290763419
112.66931 -23.390104 813.14886 4291088287
113.1132 -23.420841 813.20013 4289969812
113.60317 -23.395674 813.25708 4288063357
114.04943 -23.430365 813.30566 4286813554
114.53519 -23.406084 813.34973 4285566317
114.97984 -23.441381 813.38818 4285630314
115.46156 -23.409355 813.42291 4284975206
115.90398 -23.43001 813.44861 4285303146
116.38383 -23.400105 813.4671 4285173356
116.826 -23.436481 813.49451 4285370480
117.31029 -23.412327 813.5332 4285830516
117.7543 -23.443884 813.5791 4286683511
118.23793 -23.414064 813.63184 4287471483
118.68046 -23.439569 813.68848 4289048709
119.16815 -23.407316 813.74847 4289708938
119.60699 -23.438293 813.7973 4290041487
120.09351 -23.410673 813.8313 4290698911
120.52596 -23.448315 813.85364 4290699673
121.01492 -23.418999 813.86151 4291422117
121.44265 -23.45323 813.85522 4290831525
121.92951 -23.417877 813.84735 4290962349
122.35538 -23.450459 813.83099 4290765474
122.84344 -23.418148 813.82635 4290371742
123.27146 -23.452253 813.82837 4289977240
123.76456 -23.418249 813.8537 4290436004
97.479713 -22.916145 812.42554 4286687100
97.870117 -22.842493 812.46216 4286689154
98.407356 -22.922224 812.51294 4287148682
98.799103 -22.848644 812.56592 4287805587
99.33757 -22.924185 812.62006 4287606426
99.728294 -22.852583 812.67139 4287868566
100.26706 -22.931499 812.72333 4285833608
100.65195 -22.858599 812.74969 4284586111
101.18474 -22.936949 812.77277 4285834111
101.56629 -22.860237 812.77075 4287346574
102.0953 -22.927025 812.76825 4288857250
102.47608 -22.846306 812.75861 4289579429
103.00549 -22.924129 812.75378 4288661157
103.38723 -22.852303 812.75439 4288857502
103.92273 -22.930149 812.77423 4288199321
104.30656 -22.856565 812.79285 4288855453
104.84602 -22.933575 812.84039 4289119132
105.23057 -22.860434 812.86676 4289315479
105.76885 -22.937904 812.90631 4289576592
106.15184 -22.861893 812.9201 4289052302
106.68754 -22.933474 812.93475 4289710473
107.06745 -22.85622 812.92731 4289910156
107.59967 -22.932766 812.91608 4291223705
107.97751 -22.857748 812.89319 4291157403
108.50954 -22.932814 812.87665 4290501277
108.88794 -22.85692 812.86041 4291747747
109.4217 -22.932497 812.85541 4291943331
109.80182 -22.857265 812.85529 4292141732
110.33808 -22.934145 812.86414 4292011942
110.72073 -22.859598 812.88397 4291158943
111.25975 -22.934153 812.91284 4291223709
111.64541 -22.858097 812.9541 4291026846
112.1859 -22.931959 812.99048 4291157665
112.57468 -22.854406 813.03864 4291091361
113.11817 -22.932238 813.08954 4291088287
113.50684 -22.861315 813.14264 4290629020
114.05029 -22.943604 813.1842 4290233503
114.43588 -22.873333 813.22156 4290560667
114.97828 -22.947639 813.24847 4289311893
115.3586 -22.870144 813.2735 4288394637
115.89954 -22.940443 813.28741 4288262796
116.27826 -22.864599 813.30225 4288395920
116.82082 -22.94454 813.32477 4288658584
117.20232 -22.875704 813.35931 4290104479
117.74574 -22.952755 813.40363 4290038180
118.1298 -22.878178 813.4563 4291416735
118.67635 -22.949747 813.52087 4292266910
119.06168 -22.868071 813.5813 4291417492
119.60683 -22.944916 813.63727 4291286167
119.98913 -22.874487 813.67419 4290894229
120.53296 -22.954306 813.70599 4291221913
120.912 -22.881243 813.71918 4291027612
121.45129 -22.957308 813.71814 4290829216
121.82774 -22.880184 813.71338 4292011688
122.36543 -22.955708 813.70233 4291617442
122.74303 -22.880838 813.703 4290699670
123.28365 -22.957644 813.70984 4290960024
123.667 -22.881443 813.73553 4290434967
97.454361 -22.480974 812.26453 4287213957
97.921387 -22.459452 812.30438 4287543949
98.37925 -22.489195 812.35864 4287018383
98.848915 -22.464077 812.41724 4287413400
99.307289 -22.491194 812.47607 4287217045
99.776894 -22.469767 812.53271 4286823063
100.23241 -22.50149 812.58643 4286492046
100.70036 -22.477013 812.61011 4286296975
101.14881 -22.507219 812.63062 4288268439
101.61581 -22.473341 812.62152 4290500774
102.0572 -22.495405 812.6145 4290042031
102.52682 -22.462152 812.59528 4288988840
102.96455 -22.491907 812.58563 4288924063
103.43932 -22.465286 812.58044 4289580961
103.87716 -22.501728 812.59918 4289053851
104.35867 -22.472155 812.61884 4288922267
104.80058 -22.505175 812.66968 4289315736
105.28453 -22.474415 812.7052 4289907356
105.72585 -22.510725 812.75342 4289709205
106.20885 -22.479404 812.78027 4289447572
106.64758 -22.50786 812.8075 4289972878
107.12749 -22.471453 812.81122 4291024267
107.55962 -22.504202 812.81165 4291616922
108.03981 -22.472618 812.79327 4291353752
108.47012 -22.505722 812.78296 4291289245
108.9514 -22.472759 812.76685 4291683238
109.38223 -22.506962 812.76196 4291682209
109.86557 -22.474041 812.76123 4291485601
110.29766 -22.50795 812.76947 4291814820
110.78508 -22.4744 812.79254 4291749796
111.22 -22.507614 812.82306 4291224737
111.71104 -22.47518 812.87152 4291158175
112.14703 -22.507292 812.91162 4291684007
112.63971 -22.474468 812.96777 4291749032
113.0797 -22.50835 813.01587 4291420580
113.56923 -22.482014 813.07056 4291289518
114.01041 -22.517397 813.10333 4290895525
114.49385 -22.487921 813.13623 4290894506
114.93541 -22.519028 813.15033 4290893986
115.41372 -22.486902 813.16589 4290762667
115.85343 -22.513153 813.16876 4290435233
116.33124 -22.484369 813.17731 4290764460
116.7717 -22.520067 813.19122 4290700453
117.25446 -22.493286 813.22449 4291094960
117.7002 -22.52121 813.26172 4290570914
118.18442 -22.490196 813.31976 4290961324
118.63332 -22.516333 813.38208 4291090585
119.11979 -22.485073 813.45215 4289972106
119.56848 -22.515881 813.51044 4289773952
120.05112 -22.492794 813.5564 4289577346
120.49418 -22.524765 813.59253 4290498702
120.97576 -22.495636 813.61151 4291024791
121.4137 -22.524616 813.6145 4290238356
121.89183 -22.494226 813.60876 4290369181
122.32774 -22.525597 813.6004 4290369168
122.8073 -22.497864 813.59833 4290630539
123.24516 -22.528757 813.60791 4290105484
123.72896 -22.497274 813.63043 4289577866
97.442467 -21.996634 812.12958 4287414934
97.830582 -21.924704 812.16675 4287347606
98.367157 -22.00469 812.22205 4286559886
98.757309 -21.930002 812.27698 4287545755
99.29557 -22.003416 812.3407 4287155097
99.685333 -21.933372 812.39539 4286037397
100.22301 -22.016058 812.453 4286628757
100.60869 -21.941601 812.47491 4288992428
101.14248 -22.014568 812.49701 4291161531
101.52412 -21.936111 812.48834 4290767789
102.05399 -22.005465 812.47876 4290303911
102.43407 -21.926205 812.45819 4289514404
102.96436 -22.001184 812.44415 4288924058
103.34539 -21.92975 812.43805 4288924314
103.88026 -22.009726 812.45612 4289318299
104.26411 -21.938276 812.474 4288858272
104.8041 -22.015764 812.52795 4288989597
105.19006 -21.941853 812.56616 4290038177
105.7306 -22.017828 812.62354 4289448861
106.11596 -21.943426 812.65649 4289645213
106.65457 -22.017569 812.69513 4289385107
107.03696 -21.938492 812.70752 4290041488
107.57202 -22.010878 812.71777 4291682456
107.95105 -21.936398 812.70599 4291289498
108.48425 -22.013912 812.69891 4291880866
108.86283 -21.939095 812.68555 4291748258
109.39627 -22.014547 812.67834 4291878816
109.77591 -21.939457 812.67493 4291419551
110.3114 -22.014921 812.68024 4291616929
110.6942 -21.940329 812.70074 4291684518
111.2336 -22.015886 812.73364 4291423143
111.61983 -21.941889 812.78015 4291488678
112.1613 -22.017683 812.82471 4292210090
112.54877 -21.942593 812.88208 4292012456
113.09155 -22.019066 812.93274 4292273319
113.47809 -21.94648 812.98474 4292142503
114.01842 -22.024483 813.01483 4291485597
114.40164 -21.951679 813.04382 4290895259
114.93943 -22.026798 813.05182 4292337312
115.31939 -21.950556 813.06158 4292535976
115.85573 -22.02523 813.05695 4291617445
116.23505 -21.951319 813.06427 4292012966
116.77383 -22.029352 813.07477 4292275105
117.15661 -21.956335 813.1062 4291162269
117.69975 -22.02977 813.14319 4291947165
118.08844 -21.951397 813.20148 4291615377
118.63526 -22.026287 813.27155 4290953598
119.02716 -21.950583 813.34296 4288392557
119.57146 -22.030262 813.40784 4288391524
119.96237 -21.957596 813.45789 4287999342
120.50115 -22.035278 813.50134 4289444729
120.8886 -21.955999 813.52649 4290036608
121.4218 -22.03372 813.53217 4289708418
121.80311 -21.959116 813.52917 4289379711
122.33656 -22.038456 813.52161 4288985719
122.7162 -21.963779 813.52216 4288461427
123.25485 -22.039949 813.53021 4288592762
123.63678 -21.962824 813.54907 4288261496
97.413681 -21.567938 812.00745 4288728225
97.888969 -21.541214 812.0495 4288925860
98.339188 -21.574467 812.10889 4289318058
98.817032 -21.546028 812.1701 4290043047
99.268112 -21.5751 812.23712 4289125292
99.746292 -21.548874 812.2984 4288470440
100.19334 -21.586676 812.35437 4289717946
100.66964 -21.55794 812.3761 4291491535
101.10857 -21.587835 812.39337 4292411348
101.58408 -21.548613 812.38123 4292015294
102.01584 -21.576408 812.36694 4289845675
102.49284 -21.54142 812.33887 4288860581
102.92377 -21.574677 812.32019 4289513887
103.40325 -21.54669 812.31042 4289974685
103.83826 -21.585768 812.32782 4290762414
104.32229 -21.554953 812.34882 4292141495
104.76182 -21.590021 812.40302 4291746224
105.25011 -21.557476 812.45398 4291943840
105.69069 -21.594122 812.5177 4291681457
106.17899 -21.561586 812.56555 4291550887
106.61746 -21.593987 812.61176 4290632608
107.10242 -21.555477 812.63306 4290765206
107.53672 -21.584333 812.65039 4291158430
108.01812 -21.551914 812.64032 4291158172
108.44893 -21.588316 812.63519 4291551648
108.93008 -21.556145 812.61865 4291222171
109.36012 -21.590181 812.60938 4292010405
109.84272 -21.556547 812.60492 4291944608
110.27451 -21.590319 812.61017 4292011431
110.76143 -21.556751 812.63293 4291815848
111.19733 -21.590647 812.66968 4291292070
111.68891 -21.55937 812.72357 4291555244
112.12648 -21.595095 812.7749 4291422116
112.62047 -21.562054 812.84088 4291749286
113.05797 -21.594954 812.89313 4292405164
113.55046 -21.56251 812.948 4292273577
113.98457 -21.598936 812.97516 4291748770
114.47285 -21.56827 812.9989 4292076451
114.9034 -21.602177 813.00159 4292536748
115.38834 -21.566545 812.99896 4292143532
115.81682 -21.599449 812.98956 4291816872
116.30211 -21.567396 812.98639 4292145067
116.73223 -21.604879 812.99304 4292211371
117.22299 -21.571884 813.02173 4292603047
117.66297 -21.600714 813.05627 4290763924
118.15302 -21.566387 813.11926 4289445244
118.60408 -21.595554 813.19043 4288652138
119.09121 -21.570232 813.27118 4287273305
119.54723 -21.600494 813.33887 4287666271
120.02547 -21.576481 813.39459 4287865445
120.47804 -21.60301 813.43927 4287997544
120.95253 -21.574339 813.46692 4288324968
121.39876 -21.600096 813.47113 4288193646
121.86852 -21.578131 813.46472 4288061794
122.31207 -21.609417 813.45374 4288062310
122.78327 -21.581745 813.45099 4288325982
123.22904 -21.607035 813.45782 4287735146
123.70351 -21.580069 813.4729 4287340394
97.41507 -21.081465 811.914 4289720511
97.803284 -21.008711 811.9549 4291095747
98.340958 -21.087864 812.01782 4290965694
98.731323 -21.014221 812.07721 4290707399
99.270508 -21.087603 812.14954 4290904010
99.660744 -21.016014 812.20923 4293132248
100.19832 -21.095932 812.26715 4294377457
100.58413 -21.021032 812.28949 4294967287
101.11707 -21.092445 812.30682 4294639598
101.49866 -21.01445 812.29761 4292672971
102.02755 -21.085335 812.28113 4289649579
102.40639 -21.007879 812.25256 4289187495
102.93517 -21.085337 812.22845 4289581727
103.31561 -21.015963 812.21698 4289844908
103.84973 -21.094793 812.23242 4290899652
104.23402 -21.021738 812.25201 4294967265
104.77355 -21.098091 812.30707 4293197782
105.16172 -21.024773 812.35931 4292083654
105.70403 -21.100946 812.43262 4291559368
106.09206 -21.026794 812.48566 4292542418
106.63264 -21.100769 812.54102 4290969533
107.01682 -21.022404 812.56677 4290439594
107.55352 -21.094307 812.59021 4290635425
107.93349 -21.019037 812.58478 4291486629
108.46653 -21.096634 812.57941 4292142761
108.84494 -21.023632 812.56293 4291748772
109.37718 -21.098467 812.54926 4292275114
109.75642 -21.023464 812.54236 4292143528
110.2912 -21.098679 812.54346 4292143786
110.67371 -21.02396 812.56281 4292079275
111.21384 -21.099464 812.60089 4291423146
111.60049 -21.02763 812.6521 4291881643
112.14409 -21.104149 812.71075 4290962084
112.53255 -21.027956 812.77692 4291814309
113.07718 -21.101938 812.84009 4292732068
113.46404 -21.028894 812.89636 4292602279
114.00496 -21.107973 812.93024 4292274088
114.38741 -21.035185 812.95453 4292208809
114.92437 -21.109446 812.95734 4292864167
115.3021 -21.032656 812.95227 4292537766
115.8366 -21.106436 812.93622 4292932009
116.21397 -21.033222 812.92859 4292867240
116.75142 -21.111471 812.93109 4292603311
117.13541 -21.037699 812.95532 4292667559
117.67577 -21.109522 812.99091 4289448845
118.06966 -21.028835 813.05225 4287341161
118.61311 -21.108606 813.1319 4286483791
119.01321 -21.03503 813.21417 4285826387
119.55214 -21.117559 813.28949 4286747738
119.95066 -21.041197 813.34735 4287666787
120.48386 -21.118334 813.3974 4286683746
120.87669 -21.037403 813.42908 4286091097
121.4054 -21.116346 813.43433 4285894993
121.78871 -21.042494 813.43024 4285698649
122.31905 -21.122793 813.41595 4286292573
122.69801 -21.047541 813.41388 4286817381
123.23579 -21.12204 813.41589 4287146350
123.61861 -21.045523 813.4259 4287735156
97.382164 -20.658514 811.83423 4292935643
97.866898 -20.627247 811.88049 4293394397
98.308762 -20.663855 811.94543 4294967281
98.796089 -20.631613 812.01221 4294967295
99.23896 -20.665747 812.0863 4294246372
99.726372 -20.63273 812.15143 4294901747
100.16718 -20.667969 812.20569 4294967295
100.64957 -20.634121 812.22888 4294967295
101.08511 -20.666283 812.24292 4294967287
101.5639 -20.630451 812.23254 4293394386
101.99506 -20.660709 812.21368 4290896817
102.47124 -20.6266 812.18066 4289322151
102.90136 -20.662971 812.15625 4290894764
103.38031 -20.63402 812.14349 4291556793
103.81506 -20.672239 812.1604 4294836193
104.29958 -20.638964 812.18536 4294967295
104.73907 -20.674227 812.24048 4294967295
105.22939 -20.64188 812.30731 4294967292
105.67173 -20.6768 812.38416 4294967295
106.16245 -20.64282 812.45178 4294967295
