# .PCD v0.7 - Point Cloud Data file format
VERSION 0.7
FIELDS x y z rgb
SIZE 4 4 4 4
TYPE F F F U
COUNT 1 1 1 1
WIDTH 1118
HEIGHT 1
VIEWPOINT 0 0 0 1 0 0 0
POINTS 1118
DATA ascii
-11.881354 -109.48257 806.90656 4284050009
-11.438142 -109.45445 806.75726 4285167207
-10.969931 -109.43862 806.62427 4284906083
-10.527151 -109.41756 806.50909 4285102696
-10.060299 -109.40737 806.40601 4285234019
-9.6178131 -109.39211 806.32373 4284973156
-9.151474 -109.38637 806.23816 4285368431
-8.7100353 -109.37724 806.1994 4286617732
-8.2441788 -109.3793 806.16479 4286945926
-7.8036542 -109.38089 806.1745 4287406721
-7.33781 -109.38645 806.19696 4287999883
-6.8979278 -109.38944 806.26276 4288524936
-6.4328809 -109.40599 806.36938 4287277958
-5.9928718 -109.41685 806.51013 4286816635
-5.5282183 -109.44221 806.6712 4286422139
-5.0872908 -109.46749 806.87378 4285960570
-4.623168 -109.49988 807.0874 4285368170
-4.1815257 -109.528 807.33264 4285104486
-3.7176151 -109.56772 807.60181 4285366883
-3.2750952 -109.59783 807.87793 4285497449
-2.8116698 -109.64729 808.2132 4284249944
-2.3684056 -109.69285 808.57703 4283984986
-1.9046259 -109.75421 809.00122 4283656016
-1.4602288 -109.81997 809.50238 4283391309
-0.99606347 -109.87846 809.89856 4282470975
-0.55089092 -109.92355 810.26025 4282008636
-0.086821802 -109.96819 810.56671 4281219119
-17.448088 -109.69288 812.3457 4278782470
-17.020365 -109.58582 811.86023 4279440656
-16.520479 -109.61063 811.28143 4280164120
-16.083008 -109.40273 810.54541 4280494109
-15.582452 -109.42232 809.88696 4280888609
-15.147113 -109.2345 809.24475 4280824870
-14.649873 -109.27145 808.73712 4281744941
-14.220068 -109.10401 808.26978 4282337337
-13.725712 -109.15433 807.88867 4283258184
-13.299482 -109.00784 807.54999 4283917139
-12.806413 -109.0729 807.25598 4283918680
-12.383132 -108.93707 807.03156 4284116315
-11.891544 -109.0079 806.82129 4284970339
-11.469882 -108.88129 806.66101 4285628521
-10.979684 -108.96526 806.52094 4285497191
-10.559365 -108.84612 806.4101 4284971875
-10.07075 -108.93256 806.3114 4285103711
-9.6505451 -108.81998 806.23297 4284974442
-9.1632442 -108.91577 806.15247 4285175925
-8.7432241 -108.80967 806.112 4286227083
-8.2560472 -108.91214 806.07782 4286231957
-7.8371096 -108.81126 806.0827 4287545772
-7.3501225 -108.91548 806.10767 4288275124
-6.9317684 -108.81963 806.17078 4288205986
-6.4448385 -108.93683 806.28223 4286694033
-6.0273442 -108.84941 806.42212 4286688135
-5.5394111 -108.97254 806.59015 4286161791
-5.1226249 -108.89591 806.78961 4286289786
-4.6340714 -109.02808 807.00458 4285499240
-4.2175322 -108.95453 807.23834 4284512604
-3.7284212 -109.09311 807.50323 4284839511
-3.3118689 -109.02533 807.77429 4284314711
-2.8218908 -109.17387 808.11261 4283919184
-2.4051976 -109.11826 808.47473 4283328075
-1.9144877 -109.28296 808.92712 4283523142
-1.4979866 -109.24513 809.41797 4282800191
-1.0058266 -109.40375 809.81641 4282600506
-0.58927876 -109.3454 810.16357 4282074422
-0.095686778 -109.49212 810.46619 4281547054
-18.059448 -109.92367 817.49725 4278321921
-17.594769 -109.56624 814.81024 4278322691
-17.444553 -109.31796 812.50275 4278782985
-16.989809 -109.24092 811.90997 4279244305
-16.50507 -109.14603 811.20074 4279704854
-16.048698 -109.03902 810.44495 4280099867
-15.565969 -108.95857 809.78632 4280560418
-15.112671 -108.86988 809.1579 4280890665
-14.6347 -108.80833 808.66083 4281417008
-14.185717 -108.74103 808.19019 4282141499
-13.711166 -108.69517 807.81555 4283457871
-13.26511 -108.64563 807.47711 4284641121
-12.792871 -108.61361 807.18707 4284578151
-12.348998 -108.5761 806.96521 4284840553
-11.878889 -108.54794 806.76099 4284972652
-11.435768 -108.51933 806.60474 4285169517
-10.967556 -108.508 806.4718 4285169771
-10.525063 -108.48905 806.36768 4284711012
-10.058278 -108.47716 806.27405 4285827699
-9.6161213 -108.46343 806.19788 4286357887
-9.1498671 -108.4595 806.12097 4287936153
-8.7085915 -108.45304 806.07831 4289450918
-8.2427263 -108.45959 806.04382 4290832599
-7.8026528 -108.45825 806.04175 4292935663
-7.3367972 -108.46065 806.06335 4293263343
-6.8967843 -108.4603 806.125 4293722060
-6.4322739 -108.4789 806.23419 4290112437
-5.9918137 -108.49281 806.37671 4287810708
-5.5277634 -108.51684 806.5459 4287148174
-5.08634 -108.53799 806.74982 4286291842
-4.6228218 -108.57029 806.96643 4285433970
-4.1808267 -108.59613 807.20099 4284053081
-3.7169199 -108.63536 807.45789 4283985496
-3.2745295 -108.66644 807.72693 4283656275
-2.8109465 -108.71394 808.04474 4283064399
-2.3678172 -108.75748 808.40411 4282407236
-1.9040784 -108.81832 808.82581 4281880378
-1.4600139 -108.87768 809.31085 4281748021
-0.99573785 -108.9593 809.87573 4281943607
-0.55069029 -109.01512 810.32434 4281745459
-0.086339742 -109.07478 810.72235 4281021996
0.36081609 -109.12409 811.12903 4280495399
-17.648376 -108.95786 814.11389 4278388227
-17.45072 -108.84977 812.4577 4278848777
-17.016197 -108.64909 811.67981 4279375121
-16.515169 -108.66658 811.05865 4279573526
-16.078074 -108.46577 810.32794 4279771675
-15.578522 -108.48965 809.71918 4280232738
-15.144114 -108.30267 809.11261 4280955949
-14.647122 -108.33969 808.62152 4281220144
-14.217613 -108.17721 808.1618 4282208064
-13.723739 -108.23092 807.78632 4284115801
-13.297304 -108.0832 807.44928 4285432169
-12.804709 -108.14643 807.15741 4285170803
-12.381149 -108.01062 806.93213 4285892723
-11.890296 -108.08083 806.72839 4285498483
-11.468544 -107.95657 806.57074 4285695860
-10.978287 -108.04352 806.43909 4285696112
-10.558681 -107.92897 806.33972 4285238131
-10.069429 -108.01615 806.24878 4287078785
-9.650281 -107.90277 806.17322 4288528031
-9.1620426 -107.99801 806.09753 4290504634
-8.7428522 -107.89507 806.05243 4292214757
-8.2555246 -107.99702 806.01526 4294508543
-7.8368559 -107.89297 806.00726 4294967295
-7.3496132 -107.99493 806.02734 4294967295
-6.9315157 -107.89861 806.08765 4294967295
-6.4439859 -108.01665 806.20074 4292411377
-6.0271316 -107.932 806.3418 4289394114
-5.5384655 -108.05379 806.51746 4287746463
-5.1221228 -107.97466 806.71985 4287147664
-4.6328878 -108.10645 806.93915 4285632628
-4.2170963 -108.03452 807.16687 4284185188
-3.727294 -108.1701 807.4212 4283658588
-3.3114471 -108.10119 807.68494 4283197015
-2.8210087 -108.24747 808.00433 4282013770
-2.4049971 -108.19191 808.35608 4281683266
-1.9139447 -108.35461 808.79645 4280895030
-1.4978528 -108.31049 809.25964 4281024306
-1.0054183 -108.4918 809.84406 4281351728
-0.58901107 -108.44403 810.2644 4281088301
-0.095832035 -108.60263 810.65308 4280627752
0.32127568 -108.55008 811.0481 4280428835
-17.759018 -108.60487 814.08557 4278388483
-17.440498 -108.38729 812.34241 4278914314
-16.981806 -108.27515 811.51801 4279309585
-16.499985 -108.19911 810.94836 4279639063
-16.044123 -108.10371 810.24414 4279903260
-15.563197 -108.03307 809.67194 4280495652
-15.110356 -107.94352 809.06659 4280891696
-14.633052 -107.88314 808.591 4281483573
-14.183965 -107.81782 808.12427 4282209860
-13.709846 -107.77626 807.7558 4284052057
-13.263857 -107.72675 807.41724 4285630321
-12.79158 -107.69206 807.12756 4285304946
-12.347735 -107.65235 806.90741 4285632122
-11.877462 -107.62509 806.70697 4285828984
-11.43495 -107.60183 806.55548 4285960056
-10.966413 -107.59411 806.42987 4286222196
-10.524803 -107.57835 806.33746 4286028666
-10.057658 -107.56811 806.24982 4287605897
-9.6159821 -107.55187 806.17706 4288075435
-9.1498623 -107.5469 806.10175 4292345810
-8.708456 -107.54108 806.05627 4294967295
-8.2432213 -107.54635 806.01599 4294967295
-7.802289 -107.54079 806.00275 4294967295
-7.3373466 -107.54366 806.01959 4294967295
-6.8966417 -107.54359 806.08057 4294967295
-6.4322753 -107.56292 806.19177 4294967295
-5.9913816 -107.5781 806.33667 4293132276
-5.5274534 -107.60356 806.51459 4289982907
-5.0864739 -107.62343 806.72113 4286563478
-4.6224723 -107.65572 806.94189 4286028411
-4.1806159 -107.68179 807.16846 4284187751
-3.7167165 -107.71986 807.41461 4283724637
-3.2743363 -107.74834 807.67657 4283132248
-2.8108051 -107.79328 807.97717 4282144586
-2.3672185 -107.83606 808.32874 4281486401
-1.9038308 -107.89618 808.74066 4281418553
-1.4598879 -107.95094 809.20447 4281089584
-0.99567705 -108.02682 809.74567 4281088303
-0.55029833 -108.07962 810.17291 4280890411
-0.086158864 -108.13326 810.52325 4280495398
0.36033118 -108.18448 810.9483 4280166432
-17.640465 -108.04533 814.13318 4278454020
-17.445139 -107.9025 812.18665 4278914825
-17.01104 -107.7016 811.44153 4279178513
-16.511387 -107.73306 810.89502 4279639062
-16.075716 -107.54065 810.2309 4280297248
-15.576833 -107.56768 809.66028 4280955690
-15.142942 -107.38375 809.07446 4281285937
-14.646077 -107.42274 808.59784 4281877814
-14.2167 -107.25986 808.13391 4283062086
-13.72306 -107.31511 807.76514 4284378971
-13.296477 -107.16845 807.4256 4285368170
-12.804637 -107.22968 807.13525 4285763446
-12.380477 -107.09293 806.91644 4286026100
-11.891272 -107.16694 806.71844 4285959794
-11.468027 -107.04739 806.56879 4285829235
-10.979392 -107.13899 806.448 4286354546
-10.558677 -107.02602 806.35992 4286423424
-10.070342 -107.11363 806.27551 4288395656
-9.6503897 -106.99841 806.20453 4288862894
-9.1621752 -107.09118 806.1308 4294836172
-8.7432127 -106.98756 806.08411 4294967295
-8.2556705 -107.08698 806.03998 4294967295
-7.8370728 -106.98222 806.02197 4294967295
-7.3495278 -107.08637 806.03552 4294967295
-6.9315796 -106.99078 806.09393 4294967295
-6.4440227 -107.10426 806.20398 4294967295
-6.0270624 -107.01946 806.34448 4294967295
-5.5385098 -107.14407 806.52533 4293853135
-5.1220865 -107.0664 806.72852 4286367643
-4.632935 -107.19746 806.95087 4286292851
-4.2167373 -107.12443 807.17212 4284188266
-3.7271461 -107.25867 807.41705 4283659868
-3.3112037 -107.18972 807.67334 4282870359
-2.8207374 -107.33321 807.97498 4282080076
-2.4048631 -107.27522 808.31604 4281880645
-1.9134526 -107.43407 808.73376 4281616189
-1.4976704 -107.38836 809.1745 4281089588
-1.0053482 -107.56217 809.71991 4280956977
-0.58848488 -107.51028 810.12195 4280824877
-0.095970415 -107.66282 810.46313 4280364326
0.32122353 -107.61342 810.88055 4279969312
-17.950085 -107.70753 814.13953 4278388740
-17.438074 -107.46161 812.25842 4278914570
-16.979895 -107.34885 811.4339 4279310098
-16.497746 -107.27703 810.86481 4279770648
-16.042574 -107.18213 810.19122 4280363297
-15.56223 -107.11356 809.65051 4281087786
-15.109772 -107.02785 809.06329 4281286193
-14.63277 -106.97278 808.59991 4281615412
-14.18291 -106.90696 808.13013 4282603071
-13.709703 -106.86563 807.76642 4284247640
-13.262726 -106.81349 807.42615 4285496680
-12.791198 -106.77761 807.13812 4285303663
-12.346771 -106.73937 806.9259 4284778349
-11.877464 -106.7168 806.73053 4285040747
-11.435123 -106.69864 806.58698 4285370995
-10.96658 -106.69416 806.46918 4286684542
-10.52549 -106.67849 806.38617 4287476368
-10.058017 -106.66756 806.30255 4289119128
-9.6166515 -106.64966 806.23523 4289064890
-9.1500072 -106.64229 806.1604 4294967259
-8.7092247 -106.63634 806.11597 4294967295
-8.2435808 -106.63972 806.06989 4294967295
-7.8029246 -106.63407 806.05151 4294967295
-7.3376656 -106.64108 806.06195 4294967295
-6.8971806 -106.64243 806.12219 4294967295
-6.4326863 -106.65482 806.22778 4294967295
-5.9915423 -106.66645 806.37073 4294967295
-5.5275784 -106.69408 806.55035 4294639593
-5.086503 -106.7176 806.75531 4286896043
-4.6225719 -106.75122 806.97638 4286162045
-4.1804233 -106.77505 807.19666 4283994481
-3.7166297 -106.8113 807.4353 4283791714
-3.27443 -106.83997 807.69238 4283199325
-2.8107431 -106.8835 807.98041 4282342733
-2.3672011 -106.92348 808.32404 4281815622
-1.9036814 -106.98248 808.72028 4281615934
-1.4597913 -107.03409 809.16339 4281023796
-0.9956547 -107.10477 809.67474 4280891441
-0.55021089 -107.15233 810.07874 4280759086
-0.086215608 -107.19999 810.38232 4280298533
0.36031365 -107.24883 810.79675 4279903775
-18.082457 -107.47961 816.00836 4278387713
-17.660347 -107.28357 815.4516 4278454021
-17.005554 -106.7524 811.19312 4279310098
-16.504528 -106.77679 810.59326 4279836697
-16.071781 -106.60294 810.05487 4280560673
-15.576453 -106.6523 809.67499 4281218601
-15.142974 -106.47257 809.10449 4280957226
-14.64686 -106.5151 808.63428 4281483819
-14.216633 -106.35291 808.16748 4281880889
-13.724166 -106.40915 807.80139 4284247124
-13.296368 -106.25979 807.46094 4285629031
-12.80549 -106.32102 807.17328 4285433198
-12.380526 -106.18709 806.96228 4284513635
-11.891717 -106.26453 806.76837 4284776545
-11.468612 -106.14709 806.62543 4285107054
-10.979988 -106.2385 806.5097 4287144065
-10.559361 -106.12636 806.42786 4288986010
-10.070959 -106.21449 806.3465 4290302116
-9.6510344 -106.09937 806.27948 4290701245
-9.1623096 -106.18985 806.20667 4294967229
-8.743783 -106.08504 806.16302 4294967295
-8.2559128 -106.18361 806.11627 4294967295
-7.8376255 -106.08107 806.09741 4294967295
-7.3501658 -106.18598 806.10626 4294967295
-6.9320297 -106.09068 806.16412 4294967295
-6.4447641 -106.20064 806.26794 4294967295
-6.0271158 -106.11373 806.40491 4294967295
-5.5393834 -106.23875 806.58502 4293918677
-5.1220698 -106.16242 806.78235 4288666554
-4.6337962 -106.29511 807.0025 4287017870
-4.2166953 -106.22199 807.21588 4284321141
-3.72771 -106.35371 807.45251 4283857250
-3.3110976 -106.28247 807.70355 4283133020
-2.8210535 -106.42378 807.99207 4282474063
-2.4049988 -106.3651 808.32593 4281880645
-1.9135863 -106.5203 808.72498 4281550395
-1.4977105 -106.47157 809.14923 4281089333
-1.0054083 -106.64101 809.66315 4280760368
-0.58852744 -106.58744 810.0437 4280628013
-0.09588141 -106.7318 810.3418 4280167205
0.32139584 -106.67863 810.72949 4279837727
-17.953176 -106.8062 814.30408 4278454276
-17.43734 -106.54445 812.2533 4278980107
-16.980692 -106.44215 811.50824 4279244562
-16.497635 -106.36778 810.88806 4279705624
-16.042912 -106.27205 810.23706 4280166430
-15.562407 -106.20119 809.69324 4280561698
-15.110168 -106.11971 809.11578 4280431908
-14.633286 -106.06759 808.6524 4281089066
-14.183411 -106.00064 808.17938 4282077493
-13.710098 -105.9594 807.81195 4283656271
-13.263434 -105.90836 807.47253 4285298531
-12.791462 -105.87223 807.18622 4284578143
-12.347569 -105.83671 806.98224 4283395410
-11.877383 -105.81775 806.79089 4284117081
-11.436157 -105.79937 806.65381 4284778085
-10.966846 -105.79128 806.54047 4287012992
-10.526523 -105.77687 806.46338 4288986525
-10.058341 -105.77016 806.38251 4290565550
-9.617281 -105.7536 806.31976 4289656257
-9.150672 -105.74385 806.24451 4294967266
-8.7095909 -105.73614 806.20587 4294967295
-8.2448654 -105.73727 806.15906 4294967295
-7.8033977 -105.73174 806.14386 4294967295
-7.3385167 -105.73977 806.15045 4294967295
-6.8979654 -105.74329 806.2124 4294967295
-6.433157 -105.75576 806.31134 4294967295
-5.9920392 -105.76575 806.45154 4292149247
-5.5280132 -105.79246 806.62714 4291428318
-5.0870562 -105.81652 806.82373 4287948732
-4.6229439 -105.85042 807.03918 4287149466
-4.1805711 -105.87215 807.25098 4284387189
-3.7170618 -105.90742 807.48029 4284119144
-3.2745121 -105.93402 807.73041 4283592286
-2.810889 -105.97608 808.00745 4283064918
-2.3672993 -106.01393 808.34198 4282077510
-1.9037207 -106.06869 808.72333 4281484603
-1.4598132 -106.11672 809.15021 4280827443
-0.99565661 -106.18729 809.63977 4280825903
-0.55013067 -106.23248 810.02368 4280693805
-0.086345829 -106.27531 810.30475 4280232742
0.36039183 -106.31999 810.69403 4279706910
-17.761747 -106.29605 814.85248 4278454020
-17.006771 -105.84364 811.24915 4279375890
-16.505774 -105.8705 810.66675 4279771416
-16.072683 -105.69506 810.13226 4280034843
-15.577224 -105.74414 809.74121 4280429599
-15.143772 -105.57024 809.17657 4280365091
-14.647591 -105.61491 808.70239 4280827688
-14.217443 -105.45148 808.23242 4281945655
-13.724889 -105.50344 807.85742 4283064908
-13.297064 -105.35298 807.51764 4284576602
-12.806045 -105.41628 807.23328 4283658584
-12.381353 -105.28693 807.02924 4282934606
-11.89234 -105.367 806.84174 4283329867
-11.469355 -105.24818 806.70532 4284383074
-10.980773 -105.33622 806.59491 4286881916
-10.560017 -105.22569 806.51678 4288922009
-10.071685 -105.31837 806.43817 4290959529
-9.651535 -105.20502 806.37311 4290441412
-9.1629906 -105.29208 806.29901 4294967236
-8.7444906 -105.1852 806.25885 4294967295
-8.2564583 -105.28236 806.21033 4294967295
-7.8383484 -105.1806 806.19373 4294967295
-7.3505931 -105.28539 806.19818 4294967295
-6.9325881 -105.19277 806.25562 4294967295
-6.4450402 -105.30334 806.35278 4294967295
-6.0276198 -105.21516 806.48621 4289527807
-5.5397615 -105.33752 806.66046 4290117576
-5.12222 -105.26095 806.85046 4288799422
-4.6343794 -105.39259 807.06287 4287216536
-4.2168002 -105.31709 807.26923 4285371519
-3.7277396 -105.44791 807.49762 4284448876
-3.3110404 -105.37753 807.74292 4283659108
-2.8210332 -105.51756 808.02368 4283328602
-2.4049437 -105.45674 808.35089 4282209610
-1.9134434 -105.6067 808.73877 4281484858
-1.4975387 -105.5563 809.15125 4280892723
-1.0052394 -105.72565 809.64526 4280957488
-0.5883435 -105.67064 810.00989 4280562732
-0.095529377 -105.81055 810.29407 4280167461
0.32166949 -105.75503 810.66394 4279837728
-17.957954 -105.91874 814.53265 4278454276
-17.444355 -105.67293 812.6153 4278980619
-16.983347 -105.54573 811.6543 4279507219
-16.498648 -105.46067 810.96991 4279771160
-16.04393 -105.36416 810.31549 4280100124
-15.563212 -105.29624 809.77002 4280363550
-15.111279 -105.21983 809.19879 4280234273
-14.633815 -105.16924 808.72321 4281023272
-14.183738 -105.101 808.24982 4282274615
-13.710368 -105.05445 807.86884 4283458890
-13.263218 -104.99856 807.53339 4284706646
-12.791921 -104.96546 807.25146 4283854930
-12.347478 -104.93826 807.05493 4282870859
-11.878039 -104.92367 806.87231 4283591761
-11.436972 -104.90048 806.74164 4284515940
-10.967839 -104.88999 806.63452 4286751358
-10.527386 -104.87703 806.55969 4288790680
-10.05914 -104.87299 806.48108 4290039972
-9.6180315 -104.85852 806.42047 4287887294
-9.1514244 -104.84869 806.34381 4294967243
-8.7102098 -104.8373 806.30786 4294967295
-8.2452602 -104.83746 806.25946 4294967295
-7.8039737 -104.83286 806.24622 4294967295
-7.339067 -104.84093 806.24969 4294967295
-6.898376 -104.84688 806.30939 4294967295
-6.433393 -104.86171 806.40088 4294967295
-5.9925027 -104.8693 806.53723 4294967295
-5.5283141 -104.89288 806.70581 4292673513
-5.0873685 -104.91302 806.89465 4288214722
-4.623188 -104.94532 807.10297 4287676826
-4.1807871 -104.96745 807.30682 4285112443
-3.7172613 -105.00357 807.53058 4284778096
-3.2746053 -105.02988 807.77515 4283725668
-2.8108273 -105.07075 808.04651 4282869848
-2.3673828 -105.10491 808.37665 4281751116
-1.9036736 -105.15755 808.74872 4281550909
-1.4597718 -105.20644 809.16956 4280893233
-0.99550408 -105.27561 809.64404 4280957233
-0.54997021 -105.31833 810.01801 4280628014
-0.086247429 -105.35955 810.29285 4280167205
0.36048934 -105.40179 810.66833 4279772703
-17.770065 -105.42181 815.11749 4278454020
-17.00876 -104.94683 811.38165 4279507476
-16.507339 -104.96795 810.75745 4279771163
-16.074156 -104.79496 810.23383 4280296990
-15.578218 -104.84219 809.81921 4280297758
-15.144877 -104.67073 809.26306 4280299041
-14.647979 -104.71223 808.77252 4281221417
-14.218226 -104.54897 808.30469 4282471481
-13.724829 -104.59718 807.91705 4283853389
-13.297631 -104.44749 807.58289 4285037911
-12.806212 -104.51401 807.30688 4284119128
-12.382293 -104.39011 807.11078 4283264079
-11.893066 -104.47134 806.93335 4283526989
-11.470646 -104.35082 806.80365 4284383589
-10.982144 -104.43793 806.70056 4286423161
-10.561283 -104.32748 806.62335 4288133522
-10.072896 -104.42057 806.54517 4289974689
-9.6528139 -104.30872 806.47815 4289850817
-9.1640387 -104.39591 806.40369 4294836148
-8.7453184 -104.28814 806.36298 4294967295
-8.2573547 -104.38544 806.31348 4294967295
-7.839098 -104.28333 806.2962 4294967295
-7.3515067 -104.38533 806.29926 4294967295
-6.9331841 -104.29427 806.35315 4294967295
-6.4454837 -104.40929 806.44421 4294967295
-6.028347 -104.32207 806.57343 4294967295
-5.5401893 -104.43969 806.74164 4294574073
-5.1229982 -104.35886 806.92596 4289527756
-4.6348324 -104.48814 807.13165 4289187994
-4.2177033 -104.41404 807.33228 4285178494
-3.7283783 -104.54494 807.55621 4285042283
-3.311547 -104.47341 807.7959 4283989864
-2.8214307 -104.6106 808.07178 4282936412
-2.4052134 -104.54965 808.39441 4282341199
-1.9138434 -104.69982 808.77661 4281747772
-1.4976914 -104.64838 809.18616 4280630578
-1.0052774 -104.81522 809.67511 4280957231
-0.58841515 -104.7601 810.03503 4280759343
-0.095350519 -104.89952 810.323 4280167462
0.321805 -104.84272 810.68268 4279772704
-17.961401 -105.01302 814.70111 4278388739
-17.449213 -104.79132 812.86749 4278980619
-16.984846 -104.64482 811.77954 4279507477
-16.500282 -104.55996 811.06958 4279903002
-16.045572 -104.46613 810.42706 4280297246
-15.564539 -104.39846 809.86414 4280297502
-15.112717 -104.32201 809.29376 4280102687
-14.634837 -104.26668 808.79956 4281219880
-14.185428 -104.19582 808.32605 4282602808
-13.710864 -104.14754 807.93176 4284380750
-13.264807 -104.09645 807.60162 4286482265
-12.792757 -104.06772 807.32642 4284646230
-12.349333 -104.0413 807.13647 4283068753
-11.878762 -104.02628 806.9621 4283460692
-11.438525 -104.00187 806.83661 4283465572
-10.968681 -103.99119 806.73767 4285764981
-10.52895 -103.97845 806.66229 4288396182
-10.059898 -103.97488 806.58447 4291224249
-9.6192656 -103.96012 806.51959 4290969558
-9.1519814 -103.95143 806.44324 4294967268
-8.7111368 -103.94062 806.40576 4294967295
-8.2456589 -103.94096 806.35681 4294967295
-7.8045554 -103.93378 806.34064 4294967295
-7.3396392 -103.93906 806.34534 4294967295
-6.8987679 -103.94541 806.40155 4294967295
-6.4336233 -103.96613 806.48987 4294967295
-5.9925528 -103.97595 806.62219 4294967295
-5.528708 -103.99674 806.78564 4294967295
-5.0872478 -104.01095 806.96832 4288872404
-4.6236591 -104.04179 807.16986 4289188264
-4.1809969 -104.0643 807.36591 4286033799
-3.717783 -104.09856 807.58459 4285372280
-3.2747543 -104.12103 807.8219 4284713588
-2.8112226 -104.16125 808.08789 4283199583
-2.3676486 -104.19805 808.4137 4281685326
-1.9039053 -104.25157 808.78223 4281681728
-1.4598336 -104.29929 809.20227 4281024048
-0.9956091 -104.36639 809.67859 4280825649
-0.55002713 -104.4069 810.05115 4280628016
-0.086181894 -104.45081 810.33588 4280233255
0.36029652 -104.49171 810.70599 4279838753
-17.772945 -104.52852 815.24408 4278388484
-17.0107 -104.04769 811.49866 4279639060
-16.509258 -104.06958 810.88257 4280034075
-16.07618 -103.89873 810.36462 4280231708
-15.579868 -103.94473 809.92542 4280363291
-15.14618 -103.77222 809.36102 4280299040
-14.648912 -103.80937 808.85364 4280959014
-14.219055 -103.64461 808.37915 4282735160
-13.725222 -103.69215 807.98029 4284249416
-13.298248 -103.54613 807.64734 4284714060
-12.806659 -103.61405 807.37811 4284909399
-12.38323 -103.49041 807.18677 4283986770
-11.893675 -103.5709 807.01831 4283526223
-11.471497 -103.45082 806.89545 4283659619
-10.982911 -103.53967 806.80341 4285501554
-10.562092 -103.43027 806.72845 4288396954
-10.073629 -103.52328 806.65289 4292930757
-9.6532412 -103.41151 806.58252 4293853154
-9.1649523 -103.50021 806.51129 4294967252
-8.7459812 -103.39268 806.46759 4294901759
-8.266427 -103.49363 806.41754 4294967295
-7.83992 -103.38418 806.39362 4294967295
-7.3622236 -103.49124 806.39862 4294967295
-6.9342785 -103.39498 806.44843 4294967295
-6.4539781 -103.51521 806.53583 4294967295
-6.0291529 -103.42489 806.66052 4294967295
-5.5402985 -103.54239 806.82343 4294967268
-5.1238575 -103.46082 807.0025 4291100632
-4.6348615 -103.58553 807.20074 4290041511
-4.2178559 -103.50935 807.39252 4287214227
-3.7285216 -103.63889 807.6098 4285766784
-3.3116882 -103.5664 807.8418 4284845172
-2.8214276 -103.70237 808.11139 4283528293
-2.4050889 -103.64171 808.42896 4282407507
-1.9138348 -103.79333 808.81067 4281682239
-1.4977252 -103.74271 809.22052 4280827446
-1.0053045 -103.90852 809.72052 4280629297
-0.58841759 -103.85146 810.08398 4280628271
-0.095508382 -103.99389 810.39026 4280167720
0.32164937 -103.93726 810.75354 4279903777
-17.800743 -104.12651 814.88513 4278388739
-17.456617 -103.91974 813.22089 4278980875
-16.987301 -103.74815 811.92499 4279704340
-16.502544 -103.66023 811.19885 4280034073
-16.047861 -103.56997 810.56348 4280165659
-15.566371 -103.50292 809.98535 4280363293
-15.114384 -103.42331 809.40326 4280168993
-14.636112 -103.36471 808.89374 4281155367
-14.18685 -103.29398 808.41016 4282146106
-13.711704 -103.24605 808.0058 4283660613
-13.265582 -103.1954 807.67444 4285762384
-12.79361 -103.16831 807.40442 4284122188
-12.350013 -103.14179 807.21814 4282740554
-11.880328 -103.12652 807.05219 4283393873
-11.438859 -103.1017 806.93365 4283200608
-10.970313 -103.09615 806.84723 4285697398
-10.529724 -103.08324 806.77344 4288527259
-10.061584 -103.07877 806.70026 4291292347
-9.6204786 -103.06303 806.63245 4290379735
-9.1528549 -103.05698 806.55951 4293984216
-8.7122412 -103.04603 806.51685 4292607999
-8.246088 -103.04514 806.4649 4294967295
-7.8052769 -103.03566 806.43823 4294967295
-7.3402719 -103.03905 806.44366 4294967295
-6.8994255 -103.04413 806.49219 4294967295
-6.4341965 -103.06522 806.57513 4294967295
-5.9933877 -103.07616 806.70007 4294967295
-5.5288048 -103.09666 806.85791 4294967294
-5.0875721 -103.10912 807.03619 4289527768
-4.6235275 -103.1381 807.23114 4289845165
-4.1813154 -103.15902 807.41956 4286756751
-3.717602 -103.19199 807.63318 4285832316
-3.2747748 -103.21434 807.8653 4284516464
-2.8113101 -103.25381 808.12744 4283462241
-2.3676944 -103.28993 808.45044 4282211924
-1.9040669 -103.34569 808.82227 4281748547
-1.4598542 -103.394 809.24463 4280959544
-0.99573582 -103.46108 809.73645 4280760627
-0.5500412 -103.50003 810.11481 4280628529
-0.08625035 -103.5476 810.42084 4280233512
0.36033261 -103.58819 810.79492 4279838496
-17.662273 -103.64691 815.54688 4278388483
-17.012281 -103.1481 811.63116 4279638803
-16.511797 -103.17396 811.0318 4279968281
-16.078754 -103.00595 810.51752 4280100378
-15.581786 -103.04915 810.04999 4280297754
-15.147896 -102.87363 809.47473 4280496161
-14.650316 -102.90698 808.95197 4281352999
-14.220166 -102.74147 808.46735 4282341685
-13.725279 -102.7887 808.05933 4283265348
-13.298926 -102.64612 807.72382 4284122183
-12.806479 -102.71561 807.45746 4283530316
-12.38373 -102.59198 807.26733 4282411077
-11.893327 -102.67036 807.10571 4283066183
-11.472168 -102.55174 806.98956 4283264861
-10.983827 -102.64317 806.909 4285106542
-10.562797 -102.53372 806.83936 4287869585
-10.074885 -102.62471 806.7702 4290369447
-9.6544876 -102.51449 806.70386 4288080052
-9.166255 -102.60812 806.63916 4292804523
-8.7468624 -102.50185 806.59283 4293394431
-8.2674408 -102.60067 806.54028 4294967295
-7.8405132 -102.48802 806.5047 4294967295
-7.3631124 -102.5929 806.50885 4294967295
-6.9348416 -102.4939 806.54742 4294967295
-6.4549594 -102.61477 806.62518 4294967295
-6.0291729 -102.52541 806.73932 4294967295
-5.5406437 -102.64164 806.89453 4294967259
-5.1241565 -102.55787 807.06866 4291231699
-4.6350374 -102.6814 807.26147 4290501025
-4.2176771 -102.60466 807.44623 4287083659
-3.728739 -102.73353 807.65942 4286357369
-3.3116975 -102.6604 807.88745 4284516205
-2.8215733 -102.79552 808.1535 4283593310
-2.4050884 -102.7346 808.46881 4282736468
-1.9139806 -102.88651 808.85541 4281945925
-1.4979267 -102.83704 809.26843 4281156155
-1.0054569 -103.00311 809.78918 4280826676
-0.58852541 -102.94641 810.1615 4280563248
-0.095618024 -103.09267 810.49573 4280234025
0.32145426 -103.03698 810.86639 4279969827
-17.643806 -103.26167 815.22864 4278388739
-17.46368 -103.04954 813.5835 4278980619
-16.990238 -102.85606 812.12878 4279704084
-16.505142 -102.76479 811.34735 4279968536
-16.050457 -102.67672 810.71753 4280231706
-15.568554 -102.60871 810.11853 4280231963
-15.116167 -102.52639 809.52667 4280168222
-14.637891 -102.46432 809.00934 4281154600
-14.188261 -102.39146 808.51282 4281881137
-13.713115 -102.34555 808.10358 4282870332
-13.266503 -102.29823 807.76538 4284578370
-12.794722 -102.27428 807.49377 4283266372
-12.350464 -102.24282 807.30493 4282017346
-11.881429 -102.22626 807.14087 4282671692
-11.439311 -102.20344 807.02667 4282741341
-10.971439 -102.1991 806.94812 4284580977
-10.530435 -102.18387 806.88037 4286292871
-10.062769 -102.17958 806.81378 4288200600
-9.6216011 -102.1667 806.75238 4286241696
-9.1539125 -102.16499 806.68524 4291297200
-8.7130575 -102.15499 806.64209 4292280319
-8.2468987 -102.15151 806.5871 4294967295
-7.8059559 -102.13783 806.5498 4294967295
-7.3409214 -102.1411 806.55267 4294967295
-6.9000421 -102.14461 806.59113 4294967295
-6.4349418 -102.16347 806.66394 4294967295
-5.9939742 -102.17509 806.77875 4294967295
-5.5292726 -102.19706 806.9292 4294967293
-5.0877404 -102.20818 807.10376 4288741322
-4.6238208 -102.23444 807.29388 4289975970
-4.1814265 -102.25268 807.47699 4287346313
-3.7178009 -102.28681 807.68732 4286291580
-3.2746403 -102.30977 807.91577 4284909424
-2.8114324 -102.35005 808.1759 4283789664
-2.3677337 -102.3847 808.49634 4282802515
-1.9041791 -102.43922 808.87457 4282077511
-1.4599781 -102.48495 809.30005 4281156925
-0.99585992 -102.55466 809.81628 4280892470
-0.55025864 -102.59612 810.20343 4280629298
-0.086036704 -102.65066 810.5423 4280299560
0.35997298 -102.68864 810.9187 4279970594
-17.66683 -102.78908 816.03955 4278388227
-17.015829 -102.25709 811.82385 4279704339
-16.514645 -102.28053 811.20361 4279968281
-16.081724 -102.11382 810.69208 4280100377
-15.584044 -102.15381 810.19501 4280232218
-15.149976 -101.97753 809.60742 4280233502
-14.652747 -102.01048 809.08459 4281023267
-14.221782 -101.8439 808.58429 4281879343
-13.726817 -101.89165 808.17352 4282213433
-13.300167 -101.74837 807.82556 4283200831
-12.807398 -101.81767 807.55267 4283397708
-12.384706 -101.6946 807.3559 4283394891
-11.893601 -101.77122 807.19055 4282803532
-11.473044 -101.65194 807.07629 4283198813
-10.984814 -101.74129 806.99774 4284318060
-10.563809 -101.63284 806.93365 4285963396
-10.076076 -101.72704 806.8692 4287674516
-9.6555214 -101.62034 806.80988 4287613603
-9.1671619 -101.71461 806.74811 4291362700
-8.7480803 -101.60709 806.70264 4292739067
-8.2679682 -101.70116 806.64832 4294967295
-7.8413277 -101.58718 806.60461 4294967295
-7.3634229 -101.69411 806.60645 4294967295
-6.9354243 -101.59438 806.63739 4294967295
-6.4556313 -101.7119 806.70679 4294967295
-6.0295057 -101.62222 806.81213 4294967295
-5.5412264 -101.73965 806.9585 4294967251
-5.1238799 -101.65592 807.1286 4287755958
-4.6352572 -101.77718 807.31543 4289909134
-4.2172427 -101.69907 807.49567 4286820998
-3.7289307 -101.82814 807.70496 4285701242
-3.3112545 -101.75574 807.93066 4285106289
-2.8217139 -101.89058 808.19739 4283593311
-2.4049265 -101.8281 808.51093 4282606162
-1.9141732 -101.97821 808.90717 4282143557
-1.4978238 -101.92803 809.32208 4281484606
-1.0055315 -102.0982 809.86975 4280958262
-0.58864975 -102.06312 810.40125 4280629298
-0.09540505 -102.22893 810.88678 4280431402
0.3215397 -102.19641 811.45441 4280036132
0.81604135 -102.39832 812.26709 4280364067
-17.820732 -102.39753 815.75903 4278322947
-17.473288 -102.19209 814.06567 4278915083
-16.995607 -101.97066 812.37329 4279769877
-16.507908 -101.86982 811.51184 4280034073
-16.053318 -101.7823 810.87756 4280100122
-15.570983 -101.71318 810.26746 4280166684
-15.118217 -101.62784 809.66376 4280102943
-14.639921 -101.56895 809.14941 4280891685
-14.189486 -101.49711 808.63983 4281421616
-13.714849 -101.45246 808.22662 4282606903
-13.267615 -101.40186 807.87579 4284512065
-12.795964 -101.37502 807.5943 4284186187
-12.35091 -101.342 807.39502 4283527499
-11.882383 -101.32764 807.2262 4283065933
-11.439983 -101.30334 807.11121 4282608727
-10.972374 -101.29604 807.03088 4284054118
-10.530453 -101.28193 806.96802 4285240444
-10.063496 -101.28336 806.90442 4287146889
-9.6221638 -101.27436 806.85089 4286762913
-9.1549788 -101.27303 806.78455 4291752877
-8.7137184 -101.25726 806.74231 4294574062
-8.2477884 -101.24767 806.68524 4294967295
-7.8066602 -101.23315 806.64191 4294967295
-7.3418827 -101.23972 806.64166 4294967295
-6.9006996 -101.24378 806.67456 4294967295
-6.4361005 -101.25948 806.74121 4294967295
-5.9947357 -101.26962 806.84949 4294967295
-5.5299039 -101.29334 806.99176 4293918688
-5.0881305 -101.30633 807.16351 4284742052
-4.624145 -101.33311 807.34833 4287938445
-4.1817851 -101.35014 807.5285 4285968257
-3.7178814 -101.38368 807.73486 4285044849
-3.2747951 -101.40569 807.96222 4284320367
-2.8114941 -101.4453 808.22455 4283856996
-2.3679116 -101.47723 808.54382 4283328858
-1.9043789 -101.53146 808.93207 4282275146
-1.4601628 -101.57674 809.35913 4281354047
-0.99604636 -101.6511 809.89935 4281155385
-0.55058801 -101.71762 810.46802 4280826420
-0.08592166 -101.78932 810.94818 4280693549
0.35027155 -101.85196 811.47614 4280495909
0.82611322 -101.92515 812.06238 4280692519
-17.661709 -101.91145 816.38055 4278322691
-17.020166 -101.37277 812.07465 4279769876
-16.518017 -101.38853 811.38928 4280099611
-16.08465 -101.22064 810.86475 4280100379
-15.586414 -101.25878 810.34491 4280232221
-15.152302 -101.08173 809.75128 4280364577
-14.654877 -101.11618 809.23169 4280825891
-14.223862 -100.95044 808.72516 4281682479
-13.728598 -100.99811 808.3111 4282672956
-13.301935 -100.85437 807.95276 4283660608
-12.808844 -100.92075 807.66852 4284645455
-12.385959 -100.79475 807.4585 4283461959
-11.894471 -100.87268 807.28656 4283065667
-11.473913 -100.75462 807.16821 4282672722
-10.985674 -100.84037 807.08301 4283790941
-10.564679 -100.73169 807.02161 4285238134
-10.076983 -100.82886 806.9552 4287014533
-9.6566677 -100.72679 806.90179 4287479454
-9.1680784 -100.81924 806.83588 4291624350
-8.7490349 -100.70863 806.78992 4294508543
-8.2604504 -100.79414 806.73175 4294967295
-7.8418193 -100.6842 806.68341 4294967295
-7.3539362 -100.78507 806.68042 4294967295
-6.9356556 -100.6896 806.70691 4294967295
-6.4476085 -100.79929 806.77173 4294967295
-6.0297403 -100.71524 806.87335 4294967295
-5.5412645 -100.8335 807.01221 4293197774
-5.1238346 -100.75345 807.1817 4284995237
-4.6351562 -100.87713 807.36523 4286626426
-4.2177849 -100.79962 807.54651 4285244287
-3.7289805 -100.92428 807.75494 4284979315
-3.3117695 -100.85017 807.98102 4283860330
-2.8220396 -100.98523 808.25403 4283660643
-2.4053941 -100.92284 808.56683 4283328859
-1.9145122 -101.07244 808.97357 4282209354
-1.4980335 -101.02196 809.38788 4281288000
-1.0056758 -101.19464 809.95227 4281090106
-0.58875495 -101.16279 810.49835 4281154872
-0.095113732 -101.33105 811.01007 4280826161
0.32165778 -101.28439 811.47803 4280891182
0.81658894 -101.45603 812.0365 4281218862
-17.989315 -101.54219 816.13562 4278322690
-17.480034 -101.31931 814.41461 4278914570
-17.001348 -101.09141 812.67017 4279572755
-16.511614 -100.98032 811.71307 4279836952
-16.056339 -100.88753 811.05176 4280034330
-15.573717 -100.81786 810.4234 4280166429
-15.120583 -100.73495 809.81543 4280102432
-14.642205 -100.67701 809.30035 4280891430
-14.191455 -100.60316 808.79022 4281355310
-13.716703 -100.55733 808.36871 4282475320
-13.269107 -100.50555 808.01111 4283855166
-12.797565 -100.47878 807.71625 4283791429
-12.351856 -100.44541 807.50244 4283395394
-11.883515 -100.43114 807.32544 4283065416
-11.440525 -100.40441 807.20227 4282870354
-10.97306 -100.39504 807.11194 4283986269
-10.53086 -100.38017 807.04736 4285040752
-10.064051 -100.38298 806.97797 4287274884
-9.6226912 -100.37553 806.92706 4287153304
-9.1557741 -100.37337 806.85455 4291949754
-8.7143621 -100.35603 806.81061 4294967295
-8.2484093 -100.3478 806.7514 4294967295
-7.8071527 -100.33471 806.70667 4294967295
-7.3422389 -100.33903 806.70343 4294967295
-6.9008341 -100.33614 806.73413 4294967295
-6.4364281 -100.34824 806.79901 4294967295
-5.9946294 -100.36007 806.90521 4294967295
-5.5304832 -100.38787 807.04169 4294508532
-5.0883131 -100.40511 807.21161 4285854376
-4.6245327 -100.43369 807.3941 4286821511
-4.1818137 -100.44817 807.57538 4285639301
-3.7181263 -100.47941 807.78162 4285503616
-3.2752011 -100.49934 808.00983 4284253549
-2.811537 -100.53891 808.27795 4283397475
-2.3679898 -100.56989 808.5965 4282738265
-1.9045311 -100.625 808.99036 4282209101
-1.460366 -100.67097 809.41736 4281289022
-0.99627519 -100.74664 809.96252 4281484346
-0.55076951 -100.81189 810.52527 4281287480
-0.085684232 -100.90762 811.19678 4281483575
0.34978524 -100.97183 811.75323 4281811253
0.82647622 -101.05746 812.44714 4281548339
1.1790245 -101.15689 813.02124 4280955692
-17.649048 -101.02882 816.68787 4278322435
-17.025013 -100.48948 812.33728 4279310097
-16.52146 -100.49655 811.57996 4279771161
-16.087681 -100.32809 811.04059 4280034330
-15.588984 -100.36189 810.50403 4280100635
-15.154583 -100.18658 809.90204 4280298784
-14.657202 -100.22289 809.38214 4280957220
-14.225973 -100.0573 808.87372 4281485358
-13.731296 -100.10506 808.45001 4282540859
-13.303722 -99.95945 808.08282 4283527488
-12.811644 -100.02334 807.78424 4283397706
-12.387296 -99.895874 807.55768 4283067974
-11.897223 -99.974419 807.37677 4282738244
-11.474957 -99.855804 807.2486 4282934611
-10.987009 -99.93972 807.15247 4284117593
-10.565756 -99.830246 807.08844 4285236335
-10.077629 -99.925896 807.01355 4287670146
-9.6574869 -99.824677 806.96021 4288333474
-9.1684914 -99.915329 806.88672 4291952574
-8.7497616 -99.805046 806.83783 4294967295
-8.2606268 -99.891777 806.77917 4294967295
-7.8421655 -99.784851 806.73163 4294967295
-7.3540878 -99.883987 806.72864 4294967295
-6.9358544 -99.784492 806.75781 4294967295
-6.4477444 -99.8899 806.8244 4294967295
-6.0302296 -99.805939 806.9281 4294967295
-5.5413818 -99.927956 807.0636 4294967272
-5.1241908 -99.853394 807.23145 4289654206
-4.6350994 -99.976303 807.41235 4288006809
-4.2183394 -99.897156 807.59479 4286821270
-3.729069 -100.01991 807.80261 4285833097
-3.311954 -99.944565 808.02972 4285172859
-2.8222899 -100.07714 808.30774 4283726699
-2.4054637 -100.01394 808.61853 4282804059
-1.9147807 -100.16661 809.02856 4282340937
-1.4980431 -100.11812 809.43927 4281814082
-1.0058068 -100.29016 809.99908 4281879356
-0.58903199 -100.25563 810.53204 4281616956
-0.094969034 -100.42026 811.02917 4281944635
0.32140926 -100.36019 811.40027 4282206523
0.81677383 -100.51577 811.83441 4281877048
-17.477213 -100.38982 814.29199 4278782984
-17.000685 -100.18403 812.75006 4279375633
-16.512775 -100.0778 811.81622 4279770902
-16.058109 -99.992493 811.19855 4279968537
-15.576511 -99.922356 810.58582 4280100380
-15.122918 -99.837616 809.96521 4280036895
-14.644616 -99.783234 809.45056 4280825893
-14.194124 -99.711143 808.93671 4281158189
-13.718465 -99.663429 808.50366 4282474552
-13.271679 -99.609505 808.13745 4283854909
-12.798833 -99.578865 807.82678 4283923528
-12.354286 -99.544769 807.59802 4284119117
-11.884513 -99.531059 807.41168 4283198032
-11.44171 -99.504517 807.27814 4282870105
-10.973779 -99.494743 807.17792 4284313184
-10.531404 -99.478241 807.10693 4284843884
-10.064705 -99.479706 807.0293 4287998860
-9.6229639 -99.469772 806.97223 4289060014
-9.1563768 -99.46624 806.89185 4293525474
-8.7148075 -99.449165 806.84064 4294967295
-8.2489481 -99.444565 806.78082 4294967295
-7.8074441 -99.432266 806.73767 4294967295
-7.3425784 -99.435471 806.73615 4294967295
-6.9007497 -99.431122 806.77191 4294967295
-6.4366198 -99.44384 806.84229 4294967295
-5.9946938 -99.453842 806.953 4294967295
-5.530642 -99.4813 807.0899 4294967295
-5.0886097 -99.501373 807.25854 4291231680
-4.624496 -99.532249 807.43835 4289845929
-4.1821661 -99.545761 807.62146 4287677088
-3.7180922 -99.573967 807.82709 4286425228
-3.2755399 -99.590607 808.05652 4284846462
-2.8116074 -99.628372 808.32886 4284120429
-2.367924 -99.661011 808.64447 4283395680
-1.9047443 -99.720673 809.03912 4282866768
-1.4606464 -99.768211 809.46082 4282406469
-0.99659896 -99.842216 809.99182 4282667845
-0.55112171 -99.900536 810.53479 4282733892
-0.085955352 -99.966454 810.99896 4282339905
0.34935468 -100.00803 811.35773 4282338366
0.82578635 -100.0585 811.77325 4282009401
-17.618834 -100.11199 816.84955 4278256642
-17.028114 -99.606888 812.61597 4279572498
-16.525023 -99.601364 811.74628 4279967770
-16.089935 -99.436188 811.21039 4280034074
-15.591617 -99.4674 810.6568 4280100378
-15.156688 -99.289848 810.04474 4280232991
-14.659336 -99.325836 809.51691 4280957222
-14.22785 -99.161377 809.00421 4281944369
-13.732833 -99.207161 808.56549 4282540088
-13.305205 -99.061035 808.18976 4283331647
-12.812881 -99.123322 807.87909 4284384084
-12.388436 -98.993309 807.64093 4284383316
-11.898046 -99.071762 807.4563 4283396181
-11.475764 -98.955597 807.32208 4283985505
-10.987653 -99.040314 807.22058 4284379741
-10.56633 -98.930382 807.15326 4284843889
-10.07782 -99.022293 807.07294 4288854160
-9.6576567 -98.917885 807.01575 4290505917
-9.1689367 -99.007545 806.93561 4294508526
-8.749836 -98.89901 806.87775 4294967295
-8.2607803 -98.988228 806.81726 4294967295
-7.8420496 -98.88134 806.77057 4294967295
-7.3539438 -98.980789 806.76727 4294967295
-6.9359193 -98.884689 806.79974 4294967295
-6.4475427 -98.990181 806.86969 4294967295
-6.0304585 -98.90448 806.97803 4294967295
-5.5413809 -99.023445 807.11542 4294967288
-5.1248941 -98.949059 807.28235 4291690435
-4.6352239 -99.071579 807.46265 4291358125
-4.2188663 -98.991943 807.6474 4288794019
-3.7286642 -99.112534 807.8551 4287148689
-3.3124363 -99.038483 808.08301 4285372032
-2.8221748 -99.171005 808.36133 4284252269
-2.405782 -99.108475 808.66595 4283461474
-1.9148136 -99.261147 809.0686 4282802511
-1.4981773 -99.212936 809.46967 4282473033
-1.0058831 -99.379402 810.00519 4283259721
-0.58925831 -99.339951 810.51636 4283326028
-0.094976097 -99.498222 810.98334 4282866507
0.32117471 -99.433754 811.3045 4283062084
0.81655604 -99.584663 811.70776 4282534973
-17.487295 -99.534584 814.83582 4278848521
-17.00523 -99.300827 813.03156 4279638035
-16.51412 -99.17572 811.92126 4280099353
-16.060158 -99.093613 811.33154 4280296474
-15.57892 -99.028183 810.73138 4280231451
-15.125114 -98.94268 810.10779 4280167710
-14.64668 -98.884918 809.58417 4280956966
-14.195902 -98.81234 809.06201 4281683763
-13.719749 -98.765007 808.60846 4282606137
-13.271999 -98.709015 808.23285 4284118849
-12.799714 -98.6782 807.91064 4284516431
-12.354409 -98.642387 807.67413 4284843096
-11.885255 -98.627396 807.48694 4283790936
-11.441393 -98.601906 807.35065 4283397474
-10.974499 -98.597885 807.24951 4284446307
-10.532041 -98.580055 807.17645 4284583791
-10.065449 -98.575996 807.09674 4288198544
-9.6231871 -98.561707 807.03717 4289656511
-9.1571264 -98.558205 806.95203 4294115309
-8.715065 -98.543159 806.89111 4294967295
-8.2493362 -98.542519 806.82904 4294967295
-7.8076339 -98.531006 806.78601 4294967295
-7.3424716 -98.535843 806.78381 4294967295
-6.9008422 -98.533188 806.82037 4294967295
-6.436307 -98.547989 806.8913 4294967295
-5.9946952 -98.55452 807.00604 4294967295
-5.5305047 -98.578644 807.14551 4294967295
-5.0889201 -98.596703 807.3139 4292739017
-4.6244874 -98.625771 807.49445 4291096249
-4.1824188 -98.63694 807.68011 4288466853
-3.7181742 -98.665749 807.88684 4287083409
-3.2756605 -98.68589 808.11584 4285241985
-2.8116379 -98.726273 808.38416 4284449393
-2.3680732 -98.756699 808.69006 4283331686
-1.9047606 -98.813477 809.06964 4283262806
-1.4605254 -98.858398 809.47668 4283328079
-0.99667633 -98.92868 809.98041 4283852116
-0.5513013 -98.981598 810.5 4283983447
-0.086049564 -99.042328 810.93854 4283458896
0.35996664 -99.072617 811.26416 4283390792
0.82553548 -99.128883 811.65601 4282403899
-17.5776 -99.136925 816.4707 4278256642
-17.520079 -99.169647 815.65912 4278782983
-17.046801 -98.801842 813.53387 4279572754
-16.530581 -98.721497 812.03882 4280164890
-16.094013 -98.547714 811.43268 4280231451
-15.593833 -98.568855 810.79578 4280231963
-15.158839 -98.394348 810.18781 4280167454
-14.661177 -98.429924 809.64691 4280825891
-14.229443 -98.264519 809.11871 4281681967
-13.733404 -98.305527 808.65436 4282474551
-13.306083 -98.157181 808.26782 4283725890
-12.813045 -98.218666 807.94714 4284647511
-12.389057 -98.090919 807.70605 4284515412
-11.89814 -98.167877 807.5238 4283790929
-11.476469 -98.052376 807.39124 4283594077
-10.988228 -98.141174 807.29175 4284448349
-10.566934 -98.03315 807.22437 4285238643
-10.078244 -98.120125 807.1449 4288264586
-9.6582603 -98.011993 807.08777 4290243258
-9.1692839 -98.100685 807.00482 4294508515
-8.7502146 -97.993538 806.93982 4294967295
-8.2613735 -98.084648 806.87915 4294967295
-7.8424821 -97.980888 806.83447 4294967295
-7.3544316 -98.082481 806.83087 4294967295
-6.936234 -97.989799 806.86224 4294967295
-6.4477534 -98.095459 806.92847 4294967295
-6.0306721 -98.00708 807.03809 4294967295
-5.5419703 -98.12191 807.17712 4294967295
-5.1251435 -98.044144 807.34137 4294115299
-4.6361446 -98.164078 807.52246 4291753404
-4.2190032 -98.083641 807.70874 4289253544
-3.7292125 -98.2062 807.91809 4287674259
-3.312675 -98.135353 808.14459 4285831810
-2.8222268 -98.268829 808.41406 4284712818
-2.4059644 -98.204727 808.70636 4284119147
-1.9149803 -98.352119 809.08728 4283920989
-1.4981865 -98.300415 809.47198 4283657303
-1.0063676 -98.46199 809.97894 4284246360
-0.58944297 -98.420151 810.4718 4284903004
-0.095517427 -98.574341 810.92053 4284050008
0.32083711 -98.510223 811.2309 4283391559
0.81632614 -98.66053 811.63824 4282403386
-17.487207 -98.636101 815.01642 4278717192
-17.010633 -98.428467 813.41705 4279441169
-16.515083 -98.269417 812.01782 4279968279
-16.061886 -98.194328 811.47229 4280231707
-15.580775 -98.127449 810.85693 4280166685
-15.127348 -98.044861 810.24756 4280168224
-14.648462 -97.989502 809.71045 4280825893
-14.196819 -97.914696 809.17242 4281420848
-13.720838 -97.8638 808.69586 4282408503
-13.272393 -97.807167 808.30811 4283921727
-12.800347 -97.774971 807.97919 4284450124
-12.354426 -97.73587 807.7403 4284776784
-11.885955 -97.72258 807.55682 4284053849
-11.442583 -97.700752 807.42395 4283530081
-10.975404 -97.699425 807.32587 4284448354
-10.533126 -97.681984 807.25409 4284913522
-10.066326 -97.676529 807.17596 4288658322
-9.6240129 -97.659058 807.11816 4290507706
-9.1578169 -97.654732 807.03192 4294967285
-8.7154274 -97.639694 806.96564 4294967295
-8.2496624 -97.637245 806.9043 4294967295
-7.8080959 -97.625854 806.86389 4294967295
-7.342948 -97.63723 806.86249 4294967295
-6.9014444 -97.641136 806.89661 4294967295
-6.4366894 -97.656799 806.96149 4294967295
-5.995326 -97.657845 807.07666 4294967295
-5.5307293 -97.677689 807.21576 4294967295
-5.0894136 -97.691399 807.38153 4294443007
-4.62467 -97.717819 807.5611 4292542415
-4.1828279 -97.730293 807.74835 4289057962
-3.7187185 -97.761955 807.95715 4287673233
-3.2757807 -97.784637 808.18335 4285569660
-2.8120623 -97.82589 808.44165 4285172339
-2.3681085 -97.853165 808.7337 4284383085
-1.9051173 -97.90506 809.09198 4284709735
-1.4604996 -97.944023 809.47937 4284840031
-0.99667555 -98.010101 809.95868 4284707936
-0.55125767 -98.061646 810.46503 4284641117
-0.086066812 -98.12104 810.88898 4284181845
0.35963959 -98.151909 811.21759 4283915847
0.8254863 -98.207375 811.60608 4282666814
-17.358728 -98.166077 815.01111 4278717446
-17.045954 -97.89386 813.62872 4279441169
-16.531363 -97.813126 812.09705 4279968025
-16.095905 -97.648697 811.57324 4280166171
-15.595862 -97.669853 810.92389 4280232477
-15.16108 -97.497307 810.33081 4280561698
-14.663108 -97.531738 809.77722 4281023014
-14.231133 -97.366592 809.23431 4281681968
-13.734962 -97.407616 808.75281 4282211380
-13.307232 -97.259407 808.35425 4283593792
-12.814128 -97.316254 808.02942 4284384851
-12.389871 -97.185585 807.78668 4284253264
-11.898828 -97.264374 807.60602 4283726419
-11.477107 -97.153503 807.47626 4284250980
-10.989038 -97.243958 807.3775 4284909414
-10.567563 -97.135521 807.30951 4285569659
-10.079077 -97.220345 807.22992 4289513363
-9.6587553 -97.111252 807.17487 4290573502
-9.1702728 -97.199913 807.09149 4294967278
-8.7504988 -97.091995 807.02325 4294967295
-8.2620783 -97.181763 806.96368 4294967295
-7.8428278 -97.076889 806.92188 4294967295
-7.3551564 -97.182198 806.91937 4294967295
-6.9365368 -97.095108 806.9455 4294967295
-6.448318 -97.201088 807.00397 4294967295
-6.0311584 -97.110283 807.11267 4294967295
