# .PCD v0.7 - Point Cloud Data file format
VERSION 0.7
FIELDS x y z rgb
SIZE 4 4 4 4
TYPE F F F U
COUNT 1 1 1 1
WIDTH 1148
HEIGHT 1
VIEWPOINT 0 0 0 1 0 0 0
POINTS 1148
DATA ascii
61.493439 -41.686577 831.65997 4284712542
61.964123 -41.666153 831.66437 4284582748
62.424381 -41.68961 831.61963 4284516961
62.890953 -41.659042 831.56866 4284450652
63.346775 -41.674942 831.46899 4284580190
63.811901 -41.648331 831.39832 4284450135
64.26902 -41.672897 831.32166 4285304675
64.736839 -41.648006 831.28387 4286224749
65.197662 -41.670914 831.2569 4285502309
65.669838 -41.645531 831.2702 4285239390
66.13372 -41.669827 831.28943 4285107043
66.609612 -41.64476 831.32452 4284843621
67.072601 -41.67342 831.35547 4284777062
67.548615 -41.653614 831.39825 4284580963
68.010635 -41.678116 831.40784 4284450151
68.482201 -41.651356 831.4212 4284778858
68.943619 -41.675117 831.40076 4284120932
69.412064 -41.655346 831.3894 4284253536
69.871307 -41.674583 831.33069 4284975711
70.339981 -41.644939 831.2962 4285435742
70.797218 -41.667992 831.23468 4284975713
71.267487 -41.642815 831.19379 4285105502
71.722977 -41.662399 831.14178 4283855961
72.196587 -41.635014 831.11884 4282937682
72.650826 -41.660198 831.07794 4283330899
73.122467 -41.632217 831.04834 4284054872
73.57959 -41.65477 831.04547 4284974432
74.052788 -41.630127 831.0451 4285763677
74.517586 -41.66069 831.08032 4285635428
74.997162 -41.641163 831.14185 4285632096
75.470192 -41.66898 831.27179 4283397197
75.960091 -41.652538 831.40509 4281752379
76.434052 -41.690937 831.56592 4281484077
76.927551 -41.674664 831.71924 4280566824
77.396072 -41.71003 831.87012 4281617458
77.885239 -41.684967 831.97186 4282473531
78.347801 -41.708771 832.05359 4282739269
78.831924 -41.680847 832.12122 4282870342
79.292107 -41.707825 832.16443 4282147654
79.772675 -41.685406 832.17987 4282082122
80.229683 -41.714539 832.20502 4282474825
80.711143 -41.691105 832.21875 4282213444
81.165909 -41.722939 832.22662 4282607432
81.644478 -41.696392 832.20306 4283134542
82.097992 -41.719074 832.19464 4283002959
82.574791 -41.690735 832.16345 4283592527
83.028145 -41.715015 832.14246 4283722061
83.505226 -41.685516 832.112 4283261505
83.957771 -41.714207 832.0863 4283326281
84.43457 -41.688034 832.0462 4282867013
84.883759 -41.707298 831.99731 4282801479
85.36013 -41.676373 831.95221 4283130949
85.807846 -41.703533 831.89178 4283590733
38.343369 -41.38625 835.56067 4282851596
38.756351 -41.306171 835.54797 4283245072
39.279179 -41.388802 835.51514 4283180559
39.690212 -41.30534 835.47321 4283771153
40.211525 -41.381107 835.43719 4284101390
40.622341 -41.282688 835.38837 4285675796
41.144341 -41.357666 835.3396 4286724884
41.555462 -41.274277 835.30396 4284627473
42.079494 -41.373119 835.28394 4283379719
42.491161 -41.298119 835.27478 4283836693
43.016788 -41.376137 835.25171 4283576085
43.427536 -41.289024 835.2403 4284036120
43.952274 -41.367783 835.21466 4284364827
44.362125 -41.283489 835.18884 4284430362
44.886745 -41.365604 835.15375 4284101912
45.296009 -41.280151 835.12689 4284363800
45.821953 -41.362186 835.11029 4284364310
46.230877 -41.277592 835.0849 4284889366
46.756645 -41.3591 835.05914 4285086485
47.163925 -41.271923 835.01215 4285218068
47.689087 -41.354916 834.97394 4285414934
48.095821 -41.270229 834.9278 4285677592
48.621613 -41.350723 834.89197 4285613083
49.028141 -41.263771 834.84802 4286006301
49.552624 -41.347473 834.80579 4286072091
49.96022 -41.264236 834.76685 4286663200
50.483597 -41.347549 834.729 4287385894
50.892632 -41.261761 834.69843 4288108586
51.415154 -41.342525 834.65649 4287189286
51.826218 -41.253487 834.6452 4286794019
52.346222 -41.33498 834.58618 4286663709
52.756931 -41.249645 834.55035 4287519532
53.274403 -41.333508 834.45648 4288112185
53.684761 -41.245674 834.41968 4286932793
54.204235 -41.327118 834.32416 4284701495
54.611946 -41.240253 834.27521 4282796854
55.135311 -41.318993 834.18982 4281746484
55.537727 -41.230667 834.11475 4282140220
56.057228 -41.303169 833.95032 4282469185
56.447117 -41.207443 833.72388 4282338364
56.952187 -41.27837 833.40631 4282601006
57.329197 -41.178677 832.99921 4282670392
57.826927 -41.245956 832.58868 4285499482
58.20689 -41.143993 832.23389 4287211125
58.713425 -41.215778 831.96381 4286819456
59.108574 -41.125477 831.81256 4287737981
59.63451 -41.203518 831.7511 4286554491
60.042294 -41.116352 831.77002 4285762412
60.574368 -41.198143 831.80676 4284184405
60.984077 -41.11528 831.85681 4282871375
61.514153 -41.204216 831.86243 4283397970
61.918625 -41.123127 831.84967 4284054873
62.442837 -41.20401 831.79041 4283400027
62.843719 -41.116138 831.73407 4283266387
63.364937 -41.192566 831.63214 4282740552
63.765511 -41.10392 831.57391 4282674504
64.289162 -41.188198 831.5022 4283398478
64.692474 -41.104069 831.4837 4284185941
65.220634 -41.186718 831.46051 4283857746
65.624924 -41.104633 831.48932 4283856978
66.159126 -41.187519 831.51129 4283857494
66.564941 -41.105278 831.5517 4283724118
67.097603 -41.189747 831.57758 4283329875
67.503639 -41.110081 831.61383 4283198547
68.034081 -41.197437 831.61469 4282871892
68.438576 -41.111355 831.61475 4283068246
68.966019 -41.19286 831.58856 4282674254
69.367607 -41.106728 831.5672 4283198544
69.894089 -41.18853 831.51196 4283659344
70.293724 -41.101402 831.4765 4283264843
70.821243 -41.184361 831.422 4282936649
71.219772 -41.099155 831.3855 4282869321
71.748566 -41.180485 831.34082 4282146626
72.149628 -41.095955 831.32611 4282014789
72.678009 -41.17844 831.29047 4282147910
73.078583 -41.089943 831.27252 4282672456
73.608711 -41.174355 831.27582 4283330631
74.011627 -41.092106 831.28235 4283726924
74.545944 -41.180954 831.31683 4284975964
74.955009 -41.097649 831.37653 4284712020
75.499268 -41.187828 831.49554 4283001926
75.912437 -41.110748 831.61597 4281815607
76.463165 -41.205318 831.76703 4281155621
76.876678 -41.130703 831.91656 4280696105
77.428566 -41.222343 832.07257 4281157420
77.835381 -41.142208 832.18732 4282145080
78.382629 -41.226086 832.28857 4282606403
78.786911 -41.143822 832.37598 4281949244
79.330307 -41.229874 832.43048 4281816889
79.728455 -41.149605 832.45398 4281422138
80.270126 -41.237465 832.47577 4281815864
80.666512 -41.154152 832.48175 4281356600
81.205406 -41.234554 832.47546 4281882940
81.598038 -41.150841 832.44189 4282145856
82.136078 -41.236244 832.42249 4281752126
82.527672 -41.14959 832.38477 4281882685
83.065666 -41.229614 832.36011 4282406972
83.457199 -41.145546 832.32599 4281880375
83.995796 -41.229465 832.30237 4282076985
84.386734 -41.144688 832.27014 4282076989
84.924614 -41.223995 832.23505 4281684537
85.31517 -41.139713 832.203 4281815865
85.852234 -41.222366 832.16046 4282669628
38.348957 -40.955006 835.7533 4282916109
38.820732 -40.932026 835.74579 4282850828
39.284676 -40.961037 835.71039 4282851085
39.754932 -40.928566 835.68298 4282982924
40.218464 -40.945942 835.64667 4283310862
40.687603 -40.906895 835.60944 4283508230
41.151604 -40.928944 835.56097 4283440128
41.621704 -40.904118 835.53186 4283310592
42.086121 -40.941948 835.49854 4283310351
42.558479 -40.921509 835.49237 4283377427
43.022678 -40.946663 835.46222 4283509525
43.495869 -40.91341 835.45862 4283707414
43.958679 -40.937248 835.43121 4283576852
44.431545 -40.908321 835.4176 4283839510
44.893513 -40.9361 835.38226 4283773461
45.366409 -40.90736 835.36163 4283707925
45.828453 -40.933426 835.336 4284101396
46.301231 -40.902664 835.30981 4284429845
46.762306 -40.929081 835.27515 4284561170
47.234383 -40.898205 835.22961 4284758548
47.694645 -40.924389 835.18781 4285020949
48.167068 -40.894985 835.14508 4285086743
48.627365 -40.921944 835.10858 4285284121
49.100182 -40.889641 835.06897 4285481244
49.559994 -40.916073 835.03015 4285875487
50.032257 -40.889881 834.9986 4286597924
50.492046 -40.918949 834.96655 4287189288
50.965435 -40.887966 834.94513 4287779627
51.425831 -40.91172 834.91022 4287122984
51.899254 -40.88451 834.90259 4286072355
52.355499 -40.910381 834.83649 4286137119
52.829182 -40.876785 834.79291 4286796071
53.283783 -40.901054 834.68536 4287192885
53.757191 -40.871727 834.63788 4286537783
54.211189 -40.896706 834.53149 4284044593
54.685966 -40.866684 834.48816 4282403379
55.142788 -40.887722 834.40796 4281417008
55.614861 -40.853752 834.34607 4281220919
56.0644 -40.872681 834.19037 4281811767
56.524933 -40.837257 833.97461 4281813048
56.964123 -40.852524 833.66132 4282009390
57.40683 -40.807041 833.24725 4282276914
57.839649 -40.815033 832.8313 4284841042
58.283215 -40.772064 832.46143 4287273073
58.728561 -40.785107 832.19495 4286554742
59.186413 -40.751911 832.03564 4287011954
59.647442 -40.770218 831.9743 4285632360
60.120888 -40.741291 831.98975 4283988314
60.587685 -40.767796 832.02344 4283262282
61.062794 -40.744385 832.06793 4282672709
61.526043 -40.770699 832.0672 4283132231
61.996571 -40.748608 832.05469 4283593036
62.454578 -40.771584 831.99048 4283002953
62.922344 -40.743217 831.94006 4282673991
63.378124 -40.761772 831.85095 4282343741
63.846161 -40.732044 831.79987 4282279227
64.303947 -40.755356 831.74744 4282935359
64.775711 -40.732178 831.73828 4283591490
65.237289 -40.758572 831.73651 4283460169
65.712013 -40.734306 831.76135 4283328325
66.175903 -40.76186 831.7951 4282999876
66.652939 -40.734146 831.82513 4282539585
67.114265 -40.75985 831.84509 4282735172
67.589249 -40.737648 831.8587 4282407744
68.048508 -40.764454 831.8454 4282473541
68.519577 -40.737988 831.83002 4282867528
68.977303 -40.75927 831.78265 4282604356
69.446648 -40.734467 831.75775 4283129153
69.90403 -40.754185 831.69501 4283457351
70.375053 -40.727383 831.66803 4283128381
70.831474 -40.751442 831.61377 4282537789
71.304993 -40.72554 831.59491 4282340665
71.760986 -40.748814 831.56079 4281946170
72.237671 -40.723743 831.56 4281684536
72.693115 -40.750309 831.53772 4281750072
73.16774 -40.7216 831.52588 4281553972
73.625069 -40.743919 831.52948 4282474043
74.099091 -40.717449 831.52277 4283657279
74.561005 -40.747269 831.54871 4284119372
75.041351 -40.727104 831.59094 4284379466
75.508835 -40.756229 831.69769 4282605374
75.999237 -40.735004 831.81409 4281683251
76.469231 -40.773724 831.96692 4281351980
76.966759 -40.755901 832.13159 4280631081
77.434715 -40.794193 832.30212 4281090859
77.930809 -40.772045 832.45221 4281684020
78.395172 -40.799557 832.57117 4281619252
78.887207 -40.773998 832.68439 4281551665
79.34745 -40.806263 832.74896 4281616179
79.833008 -40.781155 832.78717 4281484592
80.287636 -40.809353 832.79803 4281550129
80.769745 -40.785027 832.79895 4281287725
81.221237 -40.811752 832.77429 4281550642
81.698547 -40.781734 832.72839 4281682226
82.148354 -40.805264 832.68701 4281353778
82.625153 -40.775616 832.64392 4281484847
83.075424 -40.800186 832.60156 4281484078
83.553185 -40.772549 832.56354 4281418537
84.00399 -40.799164 832.5293 4281483566
84.483597 -40.77388 832.50458 4281287727
84.934586 -40.798855 832.47882 4281287469
85.4151 -40.767994 832.4613 4281681967
85.86557 -40.793205 832.43542 4281878578
38.364086 -40.471645 836.02826 4282587402
38.777275 -40.391014 836.01129 4282522122
39.299992 -40.473984 835.9762 4282653964
39.712284 -40.390095 835.9516 4282850573
40.235508 -40.464035 835.91864 4282719759
40.647026 -40.368465 835.88763 4282915854
41.170551 -40.444523 835.85352 4282457100
41.581818 -40.359436 835.82739 4282849804
42.105801 -40.456879 835.79663 4283244303
42.517303 -40.38678 835.78345 4283442195
43.041889 -40.464901 835.75842 4283115540
43.45293 -40.374561 835.74469 4283443989
43.978073 -40.452847 835.72015 4283247891
44.3881 -40.369766 835.69458 4283182866
44.913303 -40.453369 835.6651 4283379730
45.322422 -40.369026 835.63068 4283379474
45.848274 -40.449234 835.6062 4283641873
46.257038 -40.363937 835.57294 4283969810
46.783005 -40.445538 835.54517 4284232467
47.190697 -40.358765 835.50043 4284495123
47.716412 -40.440201 835.46722 4284692245
48.123619 -40.35545 835.42603 4284626965
48.650078 -40.437801 835.39429 4284823830
49.056847 -40.352489 835.35168 4284824856
49.583378 -40.434044 835.31659 4285481501
49.990528 -40.349548 835.28876 4286400547
50.51759 -40.431793 835.2627 4286990887
50.925034 -40.347614 835.24335 4286860839
51.452717 -40.428314 835.21899 4286925353
51.861095 -40.346634 835.22198 4286333734
52.385681 -40.429218 835.16443 4285940002
52.792553 -40.342663 835.12787 4286204198
53.313995 -40.418606 835.02283 4286730288
53.719749 -40.331429 834.97742 4285355055
54.240921 -40.414421 834.85638 4283387698
54.645699 -40.332062 834.80591 4282204721
55.170494 -40.406624 834.71332 4281088812
55.572102 -40.316189 834.64581 4281153584
56.09177 -40.390404 834.47888 4281219630
56.482746 -40.300476 834.26709 4281154350
56.988419 -40.371414 833.94641 4281680680
57.365311 -40.269085 833.53906 4282405428
57.861813 -40.333511 833.10034 4284314193
58.241158 -40.233528 832.73871 4286485097
58.749557 -40.304073 832.46216 4285698929
59.144459 -40.21328 832.31256 4285959783
59.672428 -40.288891 832.24756 4284907101
60.07925 -40.20298 832.26062 4283130955
60.61224 -40.287426 832.28033 4282210620
61.019878 -40.205624 832.30957 4282406975
61.549026 -40.288452 832.29297 4282080316
61.951931 -40.203785 832.26587 4282212412
62.476185 -40.285728 832.19653 4282277949
62.877472 -40.201675 832.14911 4282145596
63.40144 -40.280392 832.07251 4281882421
63.803905 -40.194138 832.04456 4281882678
64.331413 -40.276882 832.00928 4282343225
64.736549 -40.192341 832.02228 4282146360
65.268196 -40.276318 832.0293 4282473788
65.672974 -40.198257 832.06702 4282932544
66.208473 -40.282051 832.09601 4282538558
66.61277 -40.197422 832.12189 4281880887
67.145035 -40.280205 832.12836 4282077237
67.547462 -40.197929 832.12592 4281617976
68.076645 -40.282143 832.0957 4281750075
68.477531 -40.197495 832.06018 4282274623
69.003784 -40.278156 832.00555 4281815098
69.403412 -40.190781 831.96954 4282076986
69.930717 -40.272301 831.91296 4282142780
70.330711 -40.186356 831.88928 4282404924
70.86026 -40.267723 831.84821 4281552696
71.260468 -40.183659 831.83893 4281289267
71.792305 -40.267986 831.81775 4281485360
72.194832 -40.18734 831.82684 4281354034
72.726578 -40.271431 831.81549 4281223982
73.128403 -40.183739 831.81696 4281092913
73.66111 -40.266048 831.82837 4281620532
74.062813 -40.182465 831.83154 4282934076
74.597992 -40.268906 831.85645 4283131973
75.00325 -40.187347 831.89929 4283065150
75.546539 -40.276451 831.99292 4281750068
75.956757 -40.20005 832.10382 4281419054
76.507439 -40.292313 832.24731 4281154854
76.921783 -40.218525 832.42029 4280826407
77.476814 -40.310696 832.59705 4280827431
77.889893 -40.234203 832.77423 4281090860
78.441879 -40.319794 832.90961 4281026096
78.850655 -40.241158 833.04327 4281221164
79.397217 -40.327137 833.11139 4281023787
79.79744 -40.248444 833.1579 4281088812
80.338036 -40.333645 833.1593 4281089324
80.733284 -40.251534 833.15503 4281023274
81.269981 -40.330658 833.11206 4280892201
81.660294 -40.244923 833.06183 4280695080
82.195831 -40.325455 833.005 4280432422
82.585968 -40.238411 832.95703 4280760104
83.122063 -40.318447 832.90417 4280629286
83.51281 -40.235695 832.86658 4280694309
84.050926 -40.318314 832.82983 4280760099
84.44326 -40.236553 832.81384 4280563236
84.984077 -40.318649 832.79889 4280498212
85.377197 -40.234272 832.79486 4280760358
85.918541 -40.31443 832.78308 4280826409
38.372646 -40.041851 836.28485 4282390025
38.84481 -40.014565 836.28198 4282456328
39.30875 -40.042416 836.24207 4282521866
39.781258 -40.013058 836.2348 4282587658
40.244637 -40.035957 836.19202 4282653195
40.716614 -39.999454 836.17102 4282784010
41.17947 -40.021538 836.12524 4282914826
41.651726 -39.995537 836.10358 4283046411
42.114079 -40.032784 836.05402 4283243792
42.587139 -40.007984 836.04547 4283244561
43.050289 -40.030727 836.01227 4283180050
43.52383 -39.997627 836.01093 4283180819
43.987011 -40.024406 835.9848 4283312659
44.460484 -39.997116 835.97638 4283444498
44.923084 -40.026409 835.94818 4283116816
45.396111 -39.997768 835.92474 4283182354
45.858154 -40.023464 835.89337 4283313425
46.331161 -39.991661 835.86438 4283641104
46.792587 -40.018452 835.82935 4283772177
47.265266 -39.987019 835.78894 4283772431
47.726192 -40.013397 835.75439 4283969552
48.199234 -39.983841 835.71863 4283904272
48.660206 -40.012127 835.68732 4284035859
49.133278 -39.980762 835.6499 4284102421
49.593952 -40.008175 835.61902 4284299286
50.068462 -39.978039 835.60126 4285414942
50.529091 -40.003593 835.57648 4286006052
51.004719 -39.974339 835.56824 4286399268
51.465088 -40.003746 835.54266 4285808675
51.941906 -39.978985 835.55127 4285282591
52.39732 -40.006016 835.47766 4285610784
52.872803 -39.970078 835.44019 4286070815
53.324524 -39.991005 835.31647 4285941547
53.799469 -39.960926 835.26831 4284761382
54.250889 -39.989235 835.13593 4282925609
54.726238 -39.960083 835.09576 4281744429
55.181351 -39.980663 835.00659 4280824359
55.654247 -39.946007 834.94922 4280431142
56.103367 -39.964306 834.78717 4280758309
56.566147 -39.92765 834.57898 4280628520
57.003998 -39.944881 834.26099 4281547817
57.448196 -39.899673 833.84338 4282471215
57.87944 -39.906731 833.40094 4284510799
58.322647 -39.862953 833.021 4286744678
58.769238 -39.874893 832.74982 4285434980
59.226482 -39.841164 832.59094 4285365081
59.688274 -39.858887 832.52393 4284181328
60.16151 -39.830162 832.52649 4282472506
60.625362 -39.858829 832.54065 4282208569
61.101822 -39.834129 832.55713 4281881654
61.559704 -39.859707 832.53668 4281881396
62.03347 -39.831139 832.50751 4282340917
62.487499 -39.855259 832.44275 4282078005
62.960434 -39.829147 832.4024 4281945907
63.414959 -39.856445 832.34937 4281813810
63.889618 -39.824837 832.32983 4281552176
64.346596 -39.848171 832.31384 4281946929
64.824707 -39.822433 832.3327 4282341169
65.284485 -39.852516 832.35327 4282078516
65.764244 -39.828663 832.38641 4282274361
66.224541 -39.85807 832.42084 4282207799
66.705307 -39.826572 832.44366 4281747247
67.161446 -39.854298 832.44434 4281681457
67.638474 -39.82909 832.42871 4281616436
68.091156 -39.85516 832.38348 4281879093
68.564186 -39.825085 832.33459 4282076215
69.015358 -39.849461 832.25806 4281879349
69.488068 -39.821907 832.2171 4281747762
69.941399 -39.84314 832.15442 4281878834
70.417824 -39.81385 832.14001 4281551155
70.87191 -39.83839 832.10455 4281484591
71.352013 -39.81208 832.11487 4281353006
71.806534 -39.842136 832.1051 4281286701
72.289207 -39.816525 832.12622 4280959021
72.74295 -39.844822 832.12415 4281024555
73.222923 -39.816193 832.1286 4281157678
73.679169 -39.842064 832.13904 4281552174
74.156616 -39.811481 832.13385 4282342199
74.615318 -39.840492 832.15485 4282539320
75.096642 -39.819008 832.18726 4282537524
75.561363 -39.849789 832.27844 4281682735
76.052124 -39.829124 832.38904 4281090346
76.520416 -39.866467 832.54156 4280760357
77.02063 -39.84586 832.72845 4280301091
77.490898 -39.885262 832.92169 4280563492
77.993408 -39.866722 833.12585 4280957480
78.460197 -39.898312 833.276 4280891943
78.958008 -39.874084 833.42578 4280825892
79.418007 -39.906334 833.50323 4280694053
79.907494 -39.881683 833.55957 4280496934
80.359711 -39.912552 833.55969 4280628262
80.843803 -39.886318 833.55322 4280628004
81.290878 -39.912308 833.50366 4280627492
81.769936 -39.878567 833.44507 4280495904
82.214615 -39.901253 833.37445 4280495906
82.693901 -39.869499 833.31549 4280495905
83.138046 -39.896038 833.24646 4280430369
83.619164 -39.867107 833.20154 4280561697
84.065407 -39.894936 833.15411 4280495904
84.550095 -39.866451 833.14343 4280561695
84.999718 -39.895847 833.13208 4280364576
85.486572 -39.866539 833.14142 4280364575
85.936172 -39.892586 833.13391 4280430111
38.392311 -39.560104 836.65833 4282192903
38.806461 -39.477333 836.65503 4282324488
39.328976 -39.55938 836.60876 4282259209
39.742229 -39.475403 836.59772 4282456074
40.264915 -39.55328 836.54553 4282521610
40.676846 -39.467297 836.52075 4282521354
41.20031 -39.548203 836.47314 4282783754
41.611984 -39.465843 836.45026 4282915084
42.135769 -39.549423 836.40631 4282981134
42.547962 -39.467514 836.39886 4283047696
43.073048 -39.547001 836.37787 4282983186
43.485142 -39.461494 836.37585 4283114514
44.010796 -39.543419 836.35602 4283115026
44.421421 -39.462158 836.33765 4283050258
44.947086 -39.546467 836.31067 4282788626
45.356224 -39.462685 836.27313 4282919698
45.882122 -39.54184 836.23914 4282788880
46.290997 -39.455158 836.20392 4282984975
46.817295 -39.535328 836.17413 4283115532
47.2257 -39.452076 836.13574 4283115789
47.752178 -39.534481 836.10986 4283247629
48.160637 -39.448208 836.08112 4283181837
48.687683 -39.5294 836.05652 4283182350
49.095322 -39.445866 836.02167 4283313424
49.622753 -39.528133 835.99689 4283051791
50.031189 -39.444031 835.98572 4283970069
50.559063 -39.524216 835.96423 4284429593
50.967415 -39.43787 835.95508 4284888603
51.495785 -39.521931 835.9353 4284364058
51.905415 -39.446266 835.95197 4284625690
52.431423 -39.527225 835.88849 4284757528
52.837879 -39.438622 835.85962 4284495897
53.360527 -39.51292 835.74585 4284693278
53.765476 -39.42905 835.70184 4283645218
54.286949 -39.510975 835.56134 4282334762
54.69067 -39.429146 835.50995 4281743147
55.21524 -39.502613 835.40588 4280167968
55.61694 -39.411541 835.33295 4279773472
56.136215 -39.484978 835.15503 4280364319
56.527538 -39.39555 834.94348 4280692773
57.034328 -39.465588 834.61853 4281547555
57.411324 -39.364239 834.20599 4282076206
57.906437 -39.428478 833.74219 4283984970
58.287212 -39.327297 833.37439 4285498459
58.795509 -39.396053 833.09131 4284580705
59.192169 -39.304466 832.94269 4284512082
59.718258 -39.380527 832.86615 4283392835
60.124363 -39.29493 832.86401 4282078008
60.656857 -39.378811 832.85736 4282077489
61.061543 -39.298431 832.8631 4281354543
61.591007 -39.378651 832.82581 4281551918
61.990959 -39.292999 832.78931 4281550640
62.518524 -39.371387 832.72205 4281485359
62.918427 -39.291878 832.68884 4281484590
63.448143 -39.374805 832.64929 4281418796
63.850563 -39.290039 832.65179 4281353003
64.383636 -39.370388 832.65265 4281485612
64.788414 -39.287846 832.69031 4281682989
65.323959 -39.372429 832.71594 4281749040
65.728706 -39.296284 832.75873 4282010161
66.264938 -39.37849 832.78406 4281615407
66.667267 -39.293331 832.80316 4281089322
67.200752 -39.375797 832.79059 4281089322
67.599228 -39.29435 832.76508 4281417774
68.129372 -39.374454 832.70587 4281352751
68.524559 -39.289539 832.64685 4281353263
69.052834 -39.367321 832.56396 4281550127
69.44886 -39.282658 832.51764 4281418798
69.979248 -39.362404 832.45691 4281549870
70.377693 -39.278362 832.44763 4281221419
70.911316 -39.357597 832.42041 4281220651
71.311707 -39.276604 832.43927 4281023017
71.84819 -39.360825 832.43854 4280956967
72.249062 -39.282444 832.46765 4280694568
72.786835 -39.366302 832.47595 4280563750
73.186134 -39.283764 832.48993 4281024298
73.723961 -39.365723 832.50482 4281025834
74.122871 -39.280972 832.50873 4281551660
74.661469 -39.363129 832.52838 4281749295
75.062767 -39.282475 832.56158 4281616940
75.607788 -39.370628 832.64709 4281222186
76.016479 -39.296989 832.76166 4280892198
76.569519 -39.387367 832.91748 4280496927
76.985077 -39.313595 833.11945 4280102687
77.543182 -39.40683 833.32568 4280299808
77.96125 -39.334621 833.55212 4280628004
78.516144 -39.421196 833.71387 4280365346
78.927658 -39.344383 833.87256 4280102431
79.475502 -39.432575 833.94995 4280233503
79.877121 -39.354156 834.00714 4280167457
80.417587 -39.436806 834.00085 4280102178
80.81282 -39.356327 833.99255 4280232993
81.348907 -39.435455 833.9364 4280232737
81.73941 -39.347309 833.88525 4280232479
82.274292 -39.425629 833.81641 4280232479
82.664436 -39.340702 833.76434 4280101151
83.199219 -39.420578 833.69189 4280035614
83.590332 -39.33926 833.6554 4280232222
84.128334 -39.421391 833.61218 4279969821
84.522217 -39.33794 833.60846 4280101149
85.06385 -39.419647 833.59741 4280035613
85.459923 -39.337673 833.61694 4280035100
38.404808 -39.135521 837.0022 4282192647
38.878727 -39.106495 837.0271 4282127111
39.342472 -39.132992 836.97284 4282193159
39.815853 -39.104332 836.98096 4282324488
40.278564 -39.130005 836.91089 4282455818
40.750935 -39.100998 836.89569 4282521354
41.213039 -39.128181 836.82159 4282718220
41.685532 -39.09911 836.80017 4282850062
42.147717 -39.123566 836.73517 4282850319
42.621586 -39.092999 836.73816 4282851088
43.085266 -39.119709 836.70508 4282851344
43.560017 -39.090649 836.72131 4282786320
44.023758 -39.118 836.69806 4282983698
44.498356 -39.090939 836.70367 4282918672
44.961212 -39.122326 836.67303 4282788370
45.434715 -39.094326 836.65271 4282723090
45.896751 -39.120018 836.61121 4282526223
46.370235 -39.086895 836.58575 4282722832
46.831642 -39.112785 836.5426 4282722063
47.305222 -39.0825 836.51086 4282656268
47.766487 -39.109459 836.47577 4282721804
48.240692 -39.078873 836.45215 4282590986
48.702103 -39.106941 836.42102 4282656522
49.176418 -39.077312 836.39673 4282656779
49.638123 -39.106148 836.37653 4282788111
50.114475 -39.07621 836.38068 4283182095
50.575874 -39.102722 836.36279 4283378706
51.053078 -39.072517 836.37378 4283444499
51.513969 -39.10099 836.35144 4283378707
51.992134 -39.07653 836.37476 4283510293
52.448662 -39.103954 836.29156 4283970072
52.924026 -39.07011 836.26477 4284101912
53.376621 -39.091583 836.12604 4283774492
53.850708 -39.063473 836.08038 4283250974
54.302811 -39.088383 835.93097 4282333735
54.777157 -39.058235 835.89105 4281480236
55.231972 -39.079739 835.78845 4280494884
55.704735 -39.044357 835.72095 4280101665
56.153194 -39.063145 835.54376 4280429089
56.615974 -39.026829 835.32855 4280364579
57.05336 -39.043381 835.00018 4281218597
57.497753 -38.996567 834.57739 4281616679
57.928623 -39.00174 834.10852 4283327551
58.37183 -38.957928 833.71918 4285102421
58.8181 -38.97081 833.43951 4284449109
59.277657 -38.936085 833.28204 4284314445
59.737244 -38.954975 833.20355 4282932798
60.211678 -38.924698 833.1933 4281684532
60.67144 -38.9547 833.18634 4281550124
61.148972 -38.927708 833.18091 4281090601
61.603626 -38.954079 833.14386 4281220905
62.078968 -38.922955 833.10565 4281286443
62.531574 -38.947308 833.04498 4281351980
63.007706 -38.92038 833.01373 4281483307
63.462486 -38.952702 832.98816 4281220393
63.941856 -38.921104 832.99597 4281023526
64.398781 -38.944988 833.00214 4281286440
64.881187 -38.91914 833.0426 4281812011
65.339653 -38.952709 833.07068 4281484332
65.823051 -38.928078 833.11743 4281614636
66.281029 -38.957596 833.14478 4281220136
66.763451 -38.925369 833.17413 4280694564
67.21814 -38.952946 833.16125 4280759588
67.696167 -38.925728 833.13745 4280825894
68.145866 -38.950695 833.07019 4280957480
68.620964 -38.919689 833.00433 4281089065
69.067978 -38.947128 832.90912 4280957993
69.54435 -38.914703 832.8562 4280826664
69.993874 -38.937977 832.79376 4280891943
70.474304 -38.909027 832.78906 4280891685
70.927155 -38.936256 832.7691 4280759589
71.411064 -38.908184 832.80151 4280561954
71.865715 -38.938717 832.80701 4280627235
72.350143 -38.913361 832.84216 4280430882
72.804794 -38.943985 832.84784 4280496675
73.28775 -38.917267 832.86096 4280826150
73.74234 -38.944443 832.86926 4280826917
74.224426 -38.911213 832.87024 4281220900
74.679779 -38.939686 832.89026 4281287206
75.165436 -38.915783 832.92609 4281286694
75.627739 -38.950512 833.02478 4280760868
76.121735 -38.92696 833.14636 4280365858
76.590874 -38.965046 833.32336 4280167454
77.093597 -38.946678 833.53284 4279970588
77.56707 -38.987274 833.75562 4280167454
78.072182 -38.969711 833.98175 4280429855
78.541954 -39.001209 834.16101 4280101405
79.041679 -38.976482 834.3244 4279904282
79.504356 -39.012573 834.42645 4279903771
79.995636 -38.989807 834.49445 4279707164
80.450089 -39.022381 834.5119 4279838236
80.934219 -38.997723 834.5011 4280035100
81.383377 -39.027519 834.46808 4280100381
81.862854 -38.99036 834.40894 4280034843
82.30941 -39.00845 834.35272 4280034844
82.788551 -38.972282 834.28699 4279969051
83.232391 -39.002655 834.20721 4279903259
83.713348 -38.979984 834.15411 4280034843
84.160492 -39.008831 834.11267 4280034587
84.646973 -38.976448 834.11249 4279969049
85.096954 -39.004204 834.10217 4279903258
85.587196 -38.976219 834.1377 4279837465
38.430367 -38.657986 837.50165 4282061318
38.846153 -38.575245 837.52936 4281995782
39.368412 -38.656181 837.46338 4282061830
39.782776 -38.575256 837.46655 4282127368
40.304321 -38.654114 837.38086 4282324489
40.716896 -38.571632 837.36139 4282455819
41.239304 -38.651142 837.28143 4282652684
41.651474 -38.568077 837.26086 4282850063
42.175182 -38.646374 837.20276 4282784783
42.588497 -38.561558 837.21307 4282653967
43.114357 -38.643089 837.19281 4282654480
43.52784 -38.561886 837.21283 4282654992
44.05405 -38.642403 837.19336 4282852369
44.465763 -38.559063 837.18994 4282590736
44.99139 -38.644302 837.15338 4282657042
45.401176 -38.563305 837.11896 4282526483
45.926754 -38.642399 837.06903 4282395410
46.336189 -38.556702 837.03723 4282329104
46.862331 -38.634804 836.99518 4282197261
47.271759 -38.55093 836.96875 4282196749
47.798519 -38.632278 836.93872 4282262541
48.208309 -38.545605 836.92377 4282262540
48.735775 -38.628925 836.89825 4282131723
49.144905 -38.549343 836.88074 4282197517
49.673473 -38.63179 836.86786 4282132238
50.083572 -38.546669 836.87653 4282328847
50.613026 -38.627296 836.8692 4282459919
51.023056 -38.543793 836.88202 4282328591
51.552608 -38.625843 836.87231 4282525712
51.963398 -38.546272 836.90021 4282984979
52.490067 -38.628139 836.83795 4283444758
52.897263 -38.543819 836.81476 4283445271
53.420254 -38.621319 836.69446 4283183642
53.825256 -38.539474 836.64777 4282529311
54.347061 -38.615799 836.49976 4282071594
54.751053 -38.530861 836.44769 4281874222
55.275249 -38.606979 836.32935 4280495399
55.676243 -38.518326 836.23834 4280429349
56.194366 -38.588829 836.03796 4280363554
56.584782 -38.496284 835.80597 4280560932
57.09177 -38.565159 835.45551 4281349408
57.467857 -38.463833 835.02661 4281615402
57.96172 -38.526154 834.5329 4283392321
58.343269 -38.4263 834.15424 4284643663
58.851513 -38.495468 833.86041 4284447830
59.248631 -38.403648 833.71442 4283526211
59.772923 -38.479359 833.62604 4282537013
60.179031 -38.393524 833.61859 4281615406
60.710598 -38.477192 833.59204 4281155111
61.113319 -38.398296 833.58521 4280826407
61.642086 -38.476154 833.53046 4280891942
62.042202 -38.390614 833.49316 4281088552
62.570107 -38.469563 833.42395 4281088296
62.971031 -38.387676 833.40021 4281088295
63.502449 -38.469387 833.3764 4280891173
63.906616 -38.388405 833.39868 4280890917
64.440849 -38.470058 833.40729 4280760100
64.847122 -38.389713 833.46075 4281022758
65.383339 -38.47485 833.48761 4280694821
65.78952 -38.398628 833.54266 4280825637
66.326042 -38.480473 833.56677 4280759844
66.729996 -38.394539 833.60077 4280561698
67.264191 -38.47599 833.58856 4280430623
67.662971 -38.395138 833.56494 4280299809
68.193069 -38.473892 833.49841 4280562723
68.587837 -38.39011 833.43158 4280562980
69.115654 -38.469273 833.33649 4280431910
69.5112 -38.383926 833.28119 4280562468
70.041992 -38.462048 833.21979 4280365603
70.441467 -38.37907 833.21716 4280365089
70.976166 -38.459145 833.19849 4280233503
71.378654 -38.37883 833.2348 4280167198
71.915916 -38.46262 833.23956 4280232734
72.318054 -38.383247 833.27734 4280167199
72.855934 -38.467609 833.28149 4280101918
73.255859 -38.388084 833.29889 4280365088
73.794075 -38.467426 833.30121 4280365599
74.192665 -38.380764 833.30743 4280562976
74.731857 -38.463009 833.31842 4280694818
75.133316 -38.385368 833.35846 4280628513
75.680344 -38.472347 833.45203 4280431137
76.090439 -38.398354 833.58679 4280232990
76.645798 -38.490089 833.76379 4279904026
77.064926 -38.418617 833.99939 4279903770
77.624763 -38.510113 834.21893 4279904026
78.046005 -38.435646 834.47467 4279904027
78.603043 -38.517567 834.65253 4279772442
79.01786 -38.441433 834.85162 4279771673
79.565918 -38.542763 834.91583 4279640602
79.964363 -38.465508 834.96136 4279771931
80.504784 -38.541286 834.92181 4279706651
80.896339 -38.459183 834.87189 4279706394
81.435509 -38.54332 834.83966 4279771673
81.831184 -38.457302 834.83752 4279771672
82.354073 -38.538475 834.87512 4279903002
82.772926 -38.455936 834.88538 4279836953
83.309044 -38.537441 834.82172 4279640343
83.703163 -38.476845 834.7934 4279705880
84.243057 -38.541546 834.76428 4279903000
84.641388 -38.455612 834.79987 4279771672
85.182823 -38.538387 834.78961 4279837209
85.587723 -38.46357 834.88934 4279771417
38.447506 -38.238052 837.94818 4281864454
38.924015 -38.212193 838.01868 4281864453
39.386589 -38.237797 837.92639 4281930246
39.861137 -38.209782 837.95258 4282061575
40.322376 -38.234058 837.83966 4282193161
40.795715 -38.205074 837.83313 4282390027
41.256771 -38.230076 837.72516 4282456333
41.730148 -38.200207 837.71228 4282653199
42.19236 -38.225334 837.63788 4282522639
42.667957 -38.195675 837.66382 4282457103
43.131901 -38.222248 837.62811 4282457359
43.608727 -38.194981 837.67194 4282326543
44.072769 -38.225117 837.64594 4282392848
44.549038 -38.197598 837.67371 4282262287
45.011925 -38.22477 837.63251 4282329107
45.486416 -38.194229 837.62335 4282526231
45.947998 -38.221889 837.56134 4282198548
46.422356 -38.191956 837.54401 4281935377
46.883286 -38.216011 837.4801 4281803533
47.35804 -38.185848 837.46185 4281803534
47.819431 -38.214413 837.41766 4282065679
48.295177 -38.182102 837.41174 4282000141
48.75687 -38.209686 837.37665 4281869067
49.233025 -38.182648 837.37787 4281738253
49.696301 -38.212032 837.37042 4281672717
50.175068 -38.185017 837.40747 4281869326
50.638714 -38.214436 837.41412 4282065679
51.118172 -38.185249 837.45361 4282000143
51.580509 -38.213322 837.44501 4282130958
52.059666 -38.183567 837.4762 4282394129
52.516464 -38.209877 837.38611 4282853651
52.992222 -38.181328 837.3559 4282854420
53.444828 -38.206455 837.20782 4282789915
53.919548 -38.177074 837.16376 4282528799
54.371811 -38.19846 837.00708 4281940006
54.846859 -38.164764 836.96954 4281546285
55.300953 -38.190453 836.84857 4280692518
55.772984 -38.157555 836.7594 4280298276
56.219509 -38.169453 836.54797 4280363553
56.681244 -38.126896 836.30652 4280233251
57.116386 -38.14587 835.93921 4281086755
57.561329 -38.102257 835.49701 4281615144
57.988991 -38.107639 834.99377 4283391808
58.434464 -38.060081 834.58685 4284771405
58.877434 -38.073944 834.29456 4283855433
59.340233 -38.036804 834.13562 4283523391
59.79665 -38.05611 834.04718 4282207540
60.272675 -38.027145 834.03345 4281090090
60.730648 -38.059189 834.01489 4281022244
61.207981 -38.030422 834.00098 4280956966
61.66222 -38.05629 833.95172 4280890917
62.137848 -38.024899 833.91132 4280956197
62.590725 -38.050121 833.84753 4280890148
63.067444 -38.019569 833.81995 4280824612
63.523201 -38.049763 833.79944 4280759075
64.00396 -38.022202 833.82104 4280759331
64.461617 -38.049538 833.82697 4280627746
64.945168 -38.02232 833.8808 4280693538
65.40416 -38.05574 833.90778 4280562211
65.888969 -38.032349 833.96869 4280693283
66.34787 -38.062042 833.99854 4280561698
66.832062 -38.029282 834.04663 4280232990
67.287827 -38.056091 834.03955 4280363807
67.766769 -38.029282 834.02264 4280364318
68.217056 -38.056599 833.95721 4280364576
68.692451 -38.025887 833.88812 4280364833
69.139717 -38.052425 833.79034 4280233504
69.616264 -38.01836 833.73309 4280167711
70.066956 -38.041649 833.67914 4280232991
70.54882 -38.012985 833.68384 4280167197
71.002823 -38.042629 833.67407 4280100892
71.488495 -38.016418 833.71973 4279969820
71.94368 -38.046795 833.72534 4280035100
72.428375 -38.020153 833.75891 4280035356
72.8825 -38.049637 833.75195 4280035356
73.36557 -38.021641 833.76202 4280232477
73.819397 -38.047974 833.75531 4280298525
74.302124 -38.015644 833.75745 4280495387
74.75695 -38.043629 833.76617 4280364316
75.243896 -38.017223 833.81097 4280298267
75.707802 -38.052624 833.92249 4280232220
76.204781 -38.032391 834.06995 4280035098
76.676079 -38.075905 834.26624 4279837465
77.183212 -38.06168 834.5155 4279771927
77.655487 -38.095387 834.724 4279837464
78.159431 -38.07513 834.93176 4279903000
78.625641 -38.107132 835.07025 4279771415
79.125824 -38.075809 835.22626 4279640085
79.581833 -38.110329 835.25739 4279705367
80.071068 -38.090618 835.29492 4279836952
80.522575 -38.125507 835.27734 4279770903
81.002731 -38.100407 835.22235 4280033557
81.455589 -38.137436 835.2218 4279770645
81.941383 -38.098396 835.2276 4279901972
82.400398 -38.107742 835.29059 4279705110
82.886147 -38.068695 835.28827 4279573780
83.333847 -38.111385 835.23535 4279639060
83.813835 -38.097961 835.16724 4279836435
84.263054 -38.129078 835.14508 4279770901
84.752792 -38.091003 835.16797 4279770900
85.202065 -38.114437 835.15057 4279705110
85.699219 -38.089539 835.24548 4279770645
38.483643 -37.772175 838.67603 4281536517
38.902943 -37.697105 838.77264 4281602053
39.421673 -37.769947 838.61139 4281667846
39.837135 -37.685284 838.63043 4281799431
40.35619 -37.761524 838.47546 4281930760
40.769787 -37.679985 838.46478 4282127626
41.291008 -37.75782 838.34644 4282193675
41.704666 -37.675209 838.34491 4282194189
42.229401 -37.753426 838.29199 4282128910
42.645615 -37.67181 838.34863 4282129166
43.172935 -37.753845 838.34253 4282129423
43.589497 -37.676323 838.41138 4282064143
44.116627 -37.764839 838.39655 4281998863
44.530239 -37.688499 838.4176 4281737231
45.056244 -37.763557 838.37494 4281935124
45.467751 -37.670918 838.3642 4282329367
45.992252 -37.743717 838.2804 4281804309
46.402187 -37.658833 838.24658 4281541392
46.92741 -37.746544 838.16937 4281606415
47.33704 -37.672997 838.13892 4281671694
47.863338 -37.75087 838.0874 4281671693
48.27557 -37.658943 838.10852 4281540364
48.804012 -37.732922 838.08801 4281605899
49.216553 -37.649117 838.11774 4281344012
49.747131 -37.745647 838.12402 4281410062
50.160671 -37.676487 838.17676 4281672207
50.692986 -37.755722 838.20251 4281737232
51.101967 -37.665558 838.19226 4281933840
51.634403 -37.746532 838.21216 4281868304
52.041801 -37.65757 838.17719 4282196240
52.570572 -37.744186 838.13135 4282590225
52.973385 -37.658588 838.03485 4282263058
53.502209 -37.745121 837.99194 4282526489
53.905937 -37.663704 837.92181 4282266143
54.43309 -37.733471 837.84247 4281742887
54.836319 -37.647682 837.76874 4281414695
55.36409 -37.728493 837.69202 4280626466
55.762264 -37.636257 837.54968 4280298016
56.277637 -37.70129 837.29553 4280494366
56.665424 -37.607296 837.01184 4280494624
57.168472 -37.676567 836.58051 4281020960
57.54163 -37.577114 836.09894 4281614890
58.033607 -37.635983 835.5484 4283128384
58.413628 -37.532303 835.14124 4284246600
58.921581 -37.600136 834.8324 4283393355
59.318913 -37.50946 834.6842 4282668858
59.842346 -37.586029 834.59039 4281484330
60.248966 -37.502251 834.58624 4280694052
60.779556 -37.58482 834.55237 4280693281
61.182339 -37.50436 834.54199 4280758820
61.710869 -37.583107 834.47559 4280627234
62.111145 -37.498753 834.43433 4280561441
62.639236 -37.577076 834.3573 4280495647
63.040234 -37.49313 834.33191 4280495648
63.572666 -37.571678 834.30981 4280430112
63.977562 -37.492554 834.33911 4280430112
64.51284 -37.577274 834.34985 4280364319
64.920128 -37.498051 834.41357 4280364577
65.457436 -37.582947 834.44849 4280299556
65.865089 -37.506096 834.51562 4280627492
66.403252 -37.586441 834.55231 4280429858
66.809158 -37.502613 834.60565 4280232478
67.345146 -37.585453 834.60675 4280166428
67.745186 -37.506416 834.59351 4280100893
68.275978 -37.587471 834.52985 4280232222
68.6717 -37.502766 834.46686 4280363808
69.199638 -37.57774 834.3653 4280167456
69.595917 -37.490635 834.31299 4280101150
70.128082 -37.569408 834.25696 4280035357
70.529572 -37.490158 834.27264 4280035100
71.065544 -37.574188 834.26086 4279903515
71.470467 -37.496555 834.32031 4279903259
72.008293 -37.57859 834.32385 4279837722
72.410706 -37.496689 834.3609 4279903514
72.948296 -37.577084 834.35388 4279903515
73.348106 -37.495758 834.36481 4280100379
73.885345 -37.575268 834.3465 4280035098
74.284492 -37.490017 834.3551 4280035097
74.820526 -37.567745 834.32428 4279903769
75.221245 -37.486134 834.34943 4280034586
75.765236 -37.579765 834.40295 4279903257
76.176208 -37.505905 834.5437 4279902744
76.72757 -37.596096 834.6712 4279574550
77.153099 -37.550369 834.98102 4279574294
77.707039 -37.613071 835.12067 4279575063
78.116974 -37.54007 835.39484 4279705879
78.675323 -37.595882 835.43768 4279574549
79.0895 -37.520325 835.6427 4279376916
79.631119 -37.642311 835.61682 4279115541
80.033844 -37.571781 835.75012 4278655513
82.423805 -37.651508 835.97174 4278722324
82.870476 -37.566273 835.90204 4279245075
83.436829 -37.664616 836.13879 4278525460
83.833878 -37.63446 836.10736 4278194967
84.443222 -37.421867 836.86053 4278199065
84.800346 -37.590359 836.3844 4278721047
85.333534 -37.670307 836.29877 4278788377
85.71431 -37.591061 836.15692 4278524183
38.029484 -37.311871 839.04901 4281208580
38.489491 -37.335518 838.87555 4281208581
38.968262 -37.317837 838.98798 4281339653
39.428898 -37.343876 838.84222 4281471239
39.904686 -37.314129 838.88452 4281734152
40.364586 -37.33448 838.73706 4281799689
40.839081 -37.303444 838.73883 4281931017
41.300076 -37.327057 838.6192 4281996812
41.774933 -37.297546 838.625 4282062860
42.237572 -37.327496 838.55273 4281866509
42.715736 -37.302124 838.61438 4281866765
43.180073 -37.327465 838.58203 4281801486
43.65974 -37.302174 838.66571 4281736205
44.12421 -37.337635 838.63843 4281670670
44.602543 -37.309132 838.69794 4281540109
45.070602 -37.328964 838.7403 4281409808
45.553432 -37.298851 838.8772 4281606930
45.98748 -37.335644 838.8288 4281344529
46.485676 -37.307476 838.82135 4281278222
46.948601 -37.329838 838.66364 4281277709
47.418732 -37.29314 838.55365 4281146378
47.87447 -37.320122 838.39508 4281080330
48.350925 -37.286194 838.39435 4281146121
48.812962 -37.311646 838.35565 4281146378
49.290291 -37.28421 838.37177 4281080842
49.755077 -37.312759 838.37354 4281015563
50.234806 -37.292702 838.42102 4281343499
50.701714 -37.330269 838.46838 4281408524
51.181213 -37.298386 838.49933 4281604876
51.645874 -37.324799 838.51953 4281736207
52.12413 -37.28738 838.52582 4282064141
52.582825 -37.315178 838.45648 4282195729
53.056248 -37.289867 838.38153 4282196238
53.511173 -37.319397 838.26099 4282132248
53.985867 -37.287552 838.20709 4282068253
54.440784 -37.306908 838.0827 4281413922
54.917526 -37.270454 838.06134 4281151268
55.379726 -37.306465 838.05762 4280560417
55.858124 -37.27969 838.05475 4280297760
56.309708 -37.290493 837.9035 4280165660
56.775349 -37.258682 837.7132 4279772699
57.208721 -37.269154 837.31 4280560412
57.652786 -37.217583 836.82288 4281089572
58.072502 -37.220375 836.21326 4282405684
58.518017 -37.170872 835.75543 4283850051
58.956497 -37.184654 835.42987 4283063618
59.421726 -37.147549 835.25616 4282272821
59.875721 -37.171532 835.16437 4281219623
60.35379 -37.142246 835.1521 4280300063
60.8116 -37.171902 835.14105 4280495392
61.289104 -37.141033 835.12061 4280364065
61.744022 -37.170387 835.07452 4280429344
62.219318 -37.14085 835.01959 4280429343
62.672562 -37.166203 834.95447 4280429343
63.149147 -37.131283 834.91565 4280363807
63.605949 -37.156857 834.89893 4280298014
64.087296 -37.129475 834.92065 4280298013
64.546074 -37.162067 834.93256 4280363552
65.030411 -37.137943 834.98969 4280364064
65.490578 -37.168736 835.02325 4280299041
65.976021 -37.138321 835.08649 4280626981
66.436661 -37.165092 835.12695 4280364065
66.921921 -37.142464 835.18298 4280100893
67.37989 -37.182087 835.19293 4280034330
67.859833 -37.155491 835.18182 4280034588
68.311218 -37.178055 835.12347 4280231453
68.787422 -37.137451 835.0567 4280297246
69.235054 -37.156265 834.95679 4280231966
69.712418 -37.123276 834.90094 4280231709
70.164635 -37.154873 834.85651 4280034587
70.649101 -37.135414 834.88348 4279968537
71.105141 -37.171192 834.88922 4279902745
71.593765 -37.142712 834.96313 4279705880
72.050392 -37.170124 834.97681 4279771416
72.535919 -37.138504 835.01306 4279837208
72.990242 -37.164524 835.00055 4279837209
73.473824 -37.13282 835.00769 4279968537
73.927177 -37.156364 834.98987 4279968537
74.412193 -37.127113 835.01746 4280034071
74.859985 -37.161522 834.93225 4279902743
75.337753 -37.132702 834.89734 4279968023
75.792122 -37.153072 834.86676 4279902487
76.283569 -37.1339 834.94647 4279968021
76.741417 -37.180767 834.99231 4279770901
77.256187 -37.174583 835.3186 4279770898
77.718887 -37.190269 835.42438 4279639828
78.22493 -37.168728 835.6532 4279705877
78.674858 -37.196903 835.61615 4279508244
38.529602 -36.880638 839.69208 4280618757
39.470982 -36.878956 839.67651 4280816392
39.895054 -36.794189 839.87128 4281144074
40.401691 -36.858673 839.43903 4281079563
40.816914 -36.781906 839.44794 4280881932
41.334393 -36.858173 839.24207 4281014286
41.750477 -36.775795 839.28027 4281014031
42.277138 -36.852985 839.25452 4280818703
42.697212 -36.775364 839.37665 4280817679
43.227478 -36.857822 839.41705 4280687887
43.647251 -36.786083 839.53668 4280489999
44.176193 -36.892891 839.54108 4280295185
44.590588 -36.82774 839.56665 4279769619
45.119476 -36.885731 839.56525 4280164367
45.535206 -36.770676 839.62482 4280491278
46.060242 -36.831905 839.53973 4280753934
46.473061 -36.749691 839.54211 4280950030
46.995674 -36.85833 839.39868 4280687627
47.405064 -36.804184 839.35358 4279768586
47.929371 -36.876011 839.25513 4280031240
48.350346 -36.780071 839.42596 4280489736
48.88055 -36.835522 839.4201 4280489991
49.304047 -36.744015 839.62616 4280621065
49.836395 -36.865414 839.63757 4280294153
50.261196 -36.830189 839.86469 4280097291
50.793823 -36.904785 839.87756 4280425739
54.975006 -36.800583 839.90771 4280363809
55.480389 -36.866032 839.47229 4280297246
55.872833 -36.761215 839.23621 4280230683
56.378296 -36.816536 838.81287 4279967765
56.761261 -36.727291 838.44507 4279574037
57.258823 -36.800816 837.91833 4280231700
57.640224 -36.697018 837.53973 4280890656
58.12912 -36.754025 836.9162 4282010420
58.50589 -36.638596 836.47797 4283062075
59.014553 -36.712223 836.14355 4282339645
59.410095 -36.625916 835.98114 4281877809
59.936455 -36.705593 835.89893 4280759845
60.342827 -36.622593 835.90009 4280167198
60.876385 -36.702774 835.89636 4280298012
61.279682 -36.623184 835.88287 4280231966
61.810207 -36.708881 835.83533 4280231710
62.20982 -36.628464 835.77435 4280231709
62.738594 -36.704071 835.69836 4280166173
63.138763 -36.611168 835.65216 4280166173
63.672283 -36.683319 835.633 4280100636
64.07547 -36.605934 835.64502 4280035100
64.613167 -36.698078 835.66248 4280166173
65.013313 -36.617393 835.66516 4280232479
65.549843 -36.697212 835.64282 4280298530
65.952148 -36.615471 835.63574 4280495138
66.486664 -36.695686 835.61505 4280165918
66.888237 -36.612206 835.61108 4279837466
67.425514 -36.693371 835.61975 4279771417
67.825592 -36.6134 835.60205 4279902490
68.356201 -36.699451 835.5321 4279902747
68.753235 -36.615284 835.47369 4280034076
69.280891 -36.68235 835.36188 4279903004
69.679092 -36.591919 835.32635 4280034075
70.213364 -36.673122 835.28296 4279837209
70.619003 -36.601425 835.34259 4279705623
71.156372 -36.690094 835.33905 4279771160
71.564682 -36.61692 835.4353 4279770904
72.103134 -36.696777 835.43646 4279574295
72.505638 -36.611492 835.47119 4279508502
73.042351 -36.686527 835.44708 4279574294
73.441162 -36.599518 835.43976 4279705367
73.977417 -36.678375 835.40009 4279705623
74.375786 -36.595345 835.39551 4279574293
74.903595 -36.664101 835.2677 4279574549
75.296577 -36.572254 835.19971 4279640087
75.829468 -36.676556 835.12451 4279378197
76.238403 -36.602558 835.2428 4279246357
77.237923 -36.696743 835.93475 4278591254
78.193108 -36.653309 836.46875 4279377430
56.443413 -36.442661 839.90527 4279571982
56.892746 -36.413773 839.46606 4279376652
57.298183 -36.389324 838.63953 4280098835
57.751614 -36.33194 838.25873 4281020954
58.158638 -36.330181 837.46674 4282008620
58.600292 -36.27829 836.92719 4283256630
59.037605 -36.291256 836.59271 4282207029
59.503082 -36.257545 836.39319 4281876782
59.958214 -36.292549 836.33069 4280890148
60.436909 -36.260319 836.31555 4280035610
60.898239 -36.28421 836.3457 4280034073
61.375427 -36.252247 836.30969 4279968536
61.833687 -36.28878 836.30432 4280099354
62.307362 -36.257961 836.216 4280099608
