# .PCD v0.7 - Point Cloud Data file format
VERSION 0.7
FIELDS x y z rgb
SIZE 4 4 4 4
TYPE F F F U
COUNT 1 1 1 1
WIDTH 1148
HEIGHT 1
VIEWPOINT 0 0 0 1 0 0 0
POINTS 1148
DATA ascii
150.57623 -18.348339 815.42419 4288929660
151.1452 -18.415598 815.50507 4288798844
151.53027 -18.351179 815.60455 4288994944
152.11011 -18.422043 815.73987 4288799873
152.50386 -18.357603 815.87 4288470402
153.07863 -18.4349 815.99097 4289979027
153.46515 -18.359142 816.07599 4291487141
154.02898 -18.433142 816.14203 4290305185
154.40463 -18.357592 816.16986 4290961825
154.96181 -18.434904 816.19824 4290372255
155.33116 -18.35964 816.19409 4290175901
155.88399 -18.434196 816.19849 4289912221
156.25249 -18.358517 816.19086 4290435486
156.8087 -18.434105 816.21124 4290238108
157.18141 -18.358723 816.2262 4289778583
157.7417 -18.435421 816.2674 4289778324
158.11734 -18.360687 816.29828 4289254038
158.68501 -18.43605 816.37225 4289714587
159.06496 -18.361248 816.42725 4289319321
159.63579 -18.44109 816.51575 4289515417
160.01457 -18.367359 816.56476 4289843613
160.58296 -18.442749 816.63794 4288729245
160.95816 -18.366766 816.67072 4289909920
161.52002 -18.443562 816.70941 4289319070
161.88899 -18.368311 816.71088 4289384862
162.4454 -18.44459 816.71985 4289582751
162.8109 -18.370222 816.70435 4288991897
163.36731 -18.444763 816.71179 4289450395
163.7347 -18.36713 816.70721 4289712543
164.29689 -18.443354 816.74225 4289647269
164.6718 -18.369717 816.77594 4290041254
165.24263 -18.446772 816.85046 4288925860
165.62494 -18.371653 816.92218 4289580705
166.20094 -18.449669 817.02051 4289318047
166.58443 -18.375536 817.09711 4289449630
167.15881 -18.453882 817.18634 4289319071
167.53668 -18.378963 817.23517 4289713567
168.10301 -18.456064 817.28333 4289189533
168.47261 -18.381721 817.29205 4289319834
169.03172 -18.457361 817.30353 4289515930
169.39774 -18.378693 817.29578 4289318554
169.95592 -18.453905 817.30096 4289515419
170.32323 -18.380013 817.3006 4289449114
170.88805 -18.458427 817.33624 4288792215
171.26398 -18.382887 817.37714 4288923287
171.83881 -18.45785 817.4577 4288202389
145.13359 -17.953468 815.35223 4288598901
145.58813 -17.998844 815.52753 4289059196
146.12476 -17.964911 815.74945 4290177409
146.57272 -18.005388 815.88513 4289718658
147.08098 -17.972933 816 4289324409
147.52481 -18.00445 816.0661 4289191802
148.00124 -17.979635 816.00806 4289389947
148.39996 -18.01284 815.9483 4289389953
148.88316 -17.97225 815.83398 4289586299
149.28159 -18.00485 815.71869 4289125497
149.76213 -17.970648 815.62695 4288732275
150.21106 -17.991678 815.56195 4288665713
150.69138 -17.959846 815.54755 4288732525
151.14508 -17.987158 815.62988 4288666741
151.65076 -17.958838 815.75012 4288601457
152.10486 -17.998896 815.88995 4288863865
152.6255 -17.971344 816.03699 4289388928
153.07265 -18.014093 816.15875 4289781139
153.58766 -17.978825 816.24969 4290304674
154.02081 -18.013268 816.31506 4290303906
154.52689 -17.977461 816.33923 4289779098
154.95479 -18.013172 816.36377 4289386390
155.45273 -17.978024 816.35944 4289517463
155.87613 -18.014307 816.36108 4289056921
156.37332 -17.978741 816.35101 4288399767
156.79984 -18.013136 816.3681 4288990358
157.30202 -17.979458 816.38336 4289253527
157.72981 -18.016594 816.4223 4289055126
158.23923 -17.979452 816.45935 4288989592
158.67532 -18.014519 816.52875 4289384346
159.18874 -17.982653 816.59515 4289318295
159.62764 -18.021046 816.68079 4289449623
160.14058 -17.986494 816.742 4289450905
160.57654 -18.021189 816.81232 4289122709
161.0858 -17.987278 816.85315 4289712797
161.51492 -18.024347 816.88898 4289580957
162.01701 -17.989155 816.89294 4288924825
162.44055 -18.023617 816.8999 4288728723
162.93848 -17.989323 816.88464 4289057946
163.36203 -18.024897 816.89105 4288925335
163.86253 -17.988216 816.88617 4288990875
164.2946 -18.022074 816.92151 4289253276
164.80156 -17.989784 816.95966 4289187489
165.2437 -18.02416 817.03369 4288924571
165.75742 -17.992159 817.11487 4288989848
166.20366 -18.026827 817.21155 4288989592
166.71916 -17.995178 817.29907 4289055641
167.16092 -18.032024 817.38776 4288990359
167.67273 -18.000603 817.44281 4289122458
168.10342 -18.03742 817.49072 4288925335
168.60884 -18.001802 817.49805 4289056666
169.03191 -18.036898 817.5097 4289121434
169.53369 -17.99881 817.4986 4288858777
169.9518 -18.03409 817.50128 4289121435
170.45845 -17.999083 817.49829 4288859289
170.88533 -18.037783 817.52924 4288398996
171.39955 -18.003218 817.57452 4288202390
171.83498 -18.038456 817.6488 4288529299
145.0685 -17.424549 815.49011 4288534129
145.64133 -17.50432 815.62531 4288403563
146.06262 -17.436243 815.90668 4288537456
146.64761 -17.511036 816.10156 4289260915
147.61212 -17.524261 816.34076 4289130102
147.96126 -17.457151 816.25848 4290181760
148.48215 -17.5238 816.15851 4289656704
148.8437 -17.4559 816.05542 4289785978
149.3605 -17.509321 815.88623 4289258353
149.71609 -17.442934 815.79065 4289060465
150.25711 -17.506313 815.69885 4288995181
150.61685 -17.443333 815.67621 4288931441
151.19298 -17.50857 815.77545 4288932723
151.58015 -17.452398 815.89679 4289392761
152.16872 -17.516897 816.06549 4289981314
152.56432 -17.449606 816.21277 4289848199
153.14371 -17.521935 816.34772 4289649041
153.53113 -17.447823 816.43762 4289909658
154.09631 -17.523104 816.50903 4289776789
154.47055 -17.447037 816.52893 4288859282
155.02748 -17.522156 816.55573 4288663701
155.39729 -17.447947 816.55286 4288531604
155.94983 -17.523266 816.55566 4288595861
156.31778 -17.447737 816.54376 4288792473
156.87297 -17.524479 816.55835 4288596121
157.24489 -17.449789 816.56781 4288726422
157.80544 -17.525105 816.60742 4288659865
158.1817 -17.449165 816.64124 4289644446
158.74966 -17.525145 816.71594 4288989341
159.13142 -17.451889 816.77972 4289317013
159.70444 -17.52928 816.8764 4289448594
160.08571 -17.454514 816.93909 4288990607
160.65581 -17.531736 817.02002 4289187472
161.03285 -17.458344 817.06079 4288727439
161.59506 -17.535255 817.10022 4288857230
161.9653 -17.459671 817.10712 4288660882
162.52145 -17.533791 817.11407 4288136850
162.88777 -17.457785 817.10071 4288661650
163.44353 -17.533577 817.10529 4288529551
163.81128 -17.457846 817.10052 4288727187
164.37474 -17.533449 817.14142 4289318042
164.75021 -17.458668 817.1759 4288923800
165.32256 -17.536549 817.258 4288398223
165.70605 -17.462357 817.33319 4287873934
166.284 -17.539692 817.44031 4288136333
166.66856 -17.465523 817.52136 4288726930
167.24506 -17.544666 817.61865 4288660879
167.62302 -17.470806 817.66766 4288332943
168.19077 -17.546274 817.72119 4288726419
168.55952 -17.46896 817.72473 4289120665
169.11919 -17.545252 817.73785 4288989853
169.48428 -17.469503 817.72485 4289186460
170.04239 -17.544497 817.72772 4288858779
170.40881 -17.468639 817.72253 4288596375
170.97353 -17.545856 817.75592 4288858264
171.34949 -17.472118 817.79657 4288791959
171.92502 -17.548216 817.87915 4289185432
145.20099 -17.040247 815.72687 4288404853
145.66974 -17.083759 815.92712 4288733040
146.21388 -17.059042 816.22052 4288735091
147.15701 -17.07119 816.52875 4289329787
148.0703 -17.083462 816.52167 4291035023
148.42873 -17.114426 816.40924 4290248571
148.9131 -17.069418 816.20905 4289920641
149.29315 -17.107708 816.10248 4289654642
149.82738 -17.059721 815.98224 4288800116
150.26187 -17.085241 815.8891 4289588082
150.74815 -17.051777 815.8642 4289721725
151.20589 -17.088661 815.96832 4289657973
151.71385 -17.060049 816.10193 4291493775
152.18138 -17.091021 816.26227 4290705547
152.69499 -17.062826 816.4231 4289913487
153.15216 -17.097076 816.54999 4289122698
153.66029 -17.066229 816.64899 4288464274
154.10289 -17.099653 816.71655 4288856719
154.59981 -17.067249 816.737 4288397961
155.03659 -17.09938 816.76056 4288004489
155.5269 -17.067465 816.76013 4288135565
155.9586 -17.100256 816.75897 4288134800
156.44641 -17.068621 816.74347 4288331922
156.87979 -17.100983 816.75214 4288265872
157.37321 -17.068817 816.76276 4288396945
157.80884 -17.102419 816.79895 4288922776
158.31116 -17.069904 816.84058 4288791446
158.75592 -17.1026 816.91058 4288463247
159.26332 -17.073048 816.98792 4288265866
159.71274 -17.107019 817.08191 4288923022
160.21996 -17.074541 817.1582 4288988298
160.66635 -17.107231 817.23602 4288594827
161.16888 -17.07803 817.28503 4288331658
161.60709 -17.112108 817.32306 4288134537
162.10258 -17.080582 817.33453 4288266639
162.53413 -17.1117 817.33972 4288266894
163.02487 -17.076799 817.3277 4288528526
163.45636 -17.109013 817.33136 4288462479
163.94939 -17.078625 817.32959 4288790673
164.39096 -17.110094 817.36993 4288725395
164.88977 -17.079845 817.40759 4288265362
165.3414 -17.112143 817.48688 4288003213
165.84753 -17.082434 817.5697 4288201871
166.30312 -17.113487 817.67139 4288070539
166.81061 -17.086958 817.76013 4288529810
167.26138 -17.121281 817.85016 4288462733
167.7646 -17.09095 817.9032 4288396427
168.20494 -17.122347 817.95453 4288659346
168.70085 -17.08877 817.95624 4288659862
169.13356 -17.12182 817.97034 4288463764
169.62633 -17.090181 817.95691 4288267411
170.05389 -17.122997 817.96179 4288333460
170.55214 -17.089542 817.95917 4288529555
170.98868 -17.123997 817.99243 4288594838
171.49503 -17.092201 818.04071 4288527761
171.94096 -17.125128 818.12213 4289053846
145.14368 -16.518188 815.86597 4288074857
145.70271 -16.594233 815.92719 4289451881
146.13931 -16.525961 816.2868 4288799338
146.73305 -16.60256 816.53589 4289389930
147.70311 -16.612459 816.83447 4291032432
148.04588 -16.557207 816.76385 4290379634
148.57503 -16.612417 816.65881 4291755640
148.93428 -16.545412 816.54346 4289261161
149.45038 -16.598995 816.36987 4290765927
149.80998 -16.533073 816.27313 4288601445
150.34512 -16.598705 816.17114 4290109288
150.70567 -16.537663 816.14264 4288800620
151.27556 -16.603613 816.23224 4289785206
151.66333 -16.546896 816.34393 4289195130
152.24953 -16.611048 816.50916 4290305921
152.64232 -16.540543 816.64099 4288925827
153.22209 -16.607859 816.77472 4288530054
153.60951 -16.53355 816.86487 4288659084
154.17511 -16.611465 816.93628 4288395911
154.54945 -16.538158 816.95679 4287937157
155.1066 -16.613531 816.98163 4287413126
155.47765 -16.539379 816.98615 4287805577
156.02983 -16.614708 816.98547 4287214468
156.3976 -16.539185 816.9718 4287936394
156.95149 -16.613655 816.97815 4287870602
157.32375 -16.53854 816.98834 4288657806
157.88425 -16.614281 817.02606 4289446804
158.26193 -16.540518 817.06696 4288331660
158.83038 -16.616613 817.1424 4288396937
159.2146 -16.542326 817.2179 4287674755
159.78928 -16.619272 817.32166 4288593286
160.17365 -16.545158 817.39832 4287870851
160.74536 -16.621416 817.48523 4287870338
161.12392 -16.547909 817.53406 4287805317
161.68709 -16.625275 817.57556 4287542660
162.05875 -16.55109 817.58929 4287936904
162.61513 -16.624414 817.59521 4288134795
162.98232 -16.547102 817.586 4287740553
163.53819 -16.623316 817.58929 4287673478
163.90695 -16.549095 817.5885 4288198283
164.47189 -16.625357 817.63501 4288001677
164.84778 -16.550802 817.6709 4287936141
165.42137 -16.627869 817.75787 4287411079
165.80569 -16.553547 817.83618 4288003211
166.3844 -16.629271 817.94586 4287938445
166.76961 -16.555708 818.0282 4288069002
167.3457 -16.634726 818.1225 4288132743
167.72353 -16.560314 818.16901 4288066953
168.29131 -16.636204 818.22284 4288329613
168.65967 -16.560133 818.22174 4288854928
169.21973 -16.635138 818.23602 4288592525
169.58571 -16.559256 818.22522 4288003979
170.14487 -16.63522 818.23285 4288136336
170.51355 -16.559908 818.23602 4288267152
171.07994 -16.636145 818.27551 4288200592
171.45802 -16.561882 818.32501 4288462992
145.28276 -16.132273 816.13489 4286822500
145.7493 -16.16972 816.32281 4287217247
146.28598 -16.147959 816.58716 4287809633
147.25583 -16.155203 816.93658 4287416674
148.18767 -16.159325 817.01294 4288663649
148.57268 -16.188261 816.9118 4288204899
149.04939 -16.148767 816.73529 4287019863
149.4447 -16.185043 816.63934 4287281498
149.93343 -16.15102 816.5343 4286823001
150.3555 -16.182224 816.43707 4287086429
150.84653 -16.147833 816.40601 4287284319
151.30028 -16.193356 816.48309 4287482222
151.80301 -16.163692 816.5943 4288071029
152.27817 -16.1861 816.74292 4288070016
152.77934 -16.152004 816.8855 4287609212
153.24068 -16.181736 817.00256 4288068229
153.7437 -16.153 817.10339 4288133256
154.19493 -16.185896 817.16931 4288329606
154.68454 -16.159225 817.19672 4288395908
155.13029 -16.18902 817.22162 4287805057
155.61447 -16.160137 817.23193 4288002441
156.0553 -16.189514 817.23285 4287805061
156.53558 -16.159418 817.22083 4288395656
156.97684 -16.187567 817.22498 4288132231
157.46245 -16.158808 817.23822 4287606145
157.9068 -16.189127 817.27295 4288132488
158.40204 -16.160755 817.32074 4287738499
158.85559 -16.191675 817.38971 4287476356
159.35617 -16.163921 817.47516 4287082366
159.81551 -16.193258 817.57379 4287278462
160.31683 -16.16538 817.66193 4286883966
160.77339 -16.195316 817.74646 4287146368
161.269 -16.168631 817.80396 4287607171
161.717 -16.199532 817.8457 4287213439
162.20586 -16.170229 817.86578 4287082111
162.64639 -16.197638 817.87207 4287542405
163.13014 -16.168186 817.86554 4287870603
163.57002 -16.199009 817.86859 4287410308
164.05644 -16.171066 817.87299 4287541380
164.50464 -16.200216 817.91882 4287804040
164.9994 -16.171038 817.96118 4288001422
165.45752 -16.202171 818.04431 4287541640
165.9595 -16.175287 818.1319 4287673480
166.42096 -16.203024 818.23419 4287608197
166.92337 -16.176664 818.32355 4287804036
167.38132 -16.208719 818.40674 4287737732
167.87538 -16.181646 818.45471 4287672196
168.32396 -16.209503 818.50415 4287869059
168.81088 -16.17972 818.5014 4288196997
169.25267 -16.209223 818.51721 4288394890
169.73796 -16.180227 818.50739 4288002181
170.17619 -16.211691 818.52032 4287347072
170.66893 -16.181423 818.5307 4287216518
171.11638 -16.210398 818.57434 4287544711
171.61682 -16.182089 818.63342 4287873422
145.22612 -15.612175 816.28815 4285830738
145.80191 -15.687055 816.44495 4284518980
146.23473 -15.617395 816.77722 4284586566
146.82904 -15.694308 817.03284 4285046858
147.21912 -15.630914 817.17926 4286029648
147.79198 -15.700156 817.31464 4285374798
148.15903 -15.63234 817.30347 4285374539
148.68935 -15.700956 817.24786 4285112655
149.05206 -15.628836 817.14362 4285371212
149.57837 -15.691061 817.03046 4284452934
149.94232 -15.624448 816.95099 4284912973
150.47678 -15.695835 816.86554 4284456783
150.83876 -15.629472 816.8335 4284850778
151.39696 -15.699224 816.8822 4285509487
151.77998 -15.631266 816.95154 4287870849
152.35309 -15.700871 817.0752 4286820739
152.73972 -15.625124 817.16644 4288000901
153.31557 -15.697243 817.28284 4287936650
153.70212 -15.624776 817.36835 4288263045
154.26747 -15.702744 817.43604 4287934079
154.64363 -15.630265 817.46667 4287737982
155.20172 -15.705904 817.49408 4287737982
155.57489 -15.631704 817.50873 4288001155
156.12823 -15.705792 817.51282 4287804289
156.49763 -15.629867 817.50488 4287804289
157.05182 -15.704972 817.5119 4288197506
157.42567 -15.630533 817.52844 4287343741
157.98657 -15.705523 817.56738 4287606401
158.36853 -15.631092 817.61572 4287475586
158.93466 -15.708339 817.69031 4287016065
159.32495 -15.633313 817.77216 4287014782
159.89584 -15.709868 817.87817 4286685822
160.28824 -15.634398 817.96124 4287012733
160.85486 -15.713226 818.05341 4286290806
161.23912 -15.638852 818.10669 4286948729
161.79942 -15.715106 818.15454 4287146106
162.175 -15.639227 818.17499 4287014777
162.73022 -15.71573 818.18524 4287342721
163.09874 -15.640722 818.18115 4287999880
163.65598 -15.715602 818.18921 4286884224
164.02676 -15.641081 818.19739 4286752892
164.59396 -15.716888 818.25262 4287146625
164.9716 -15.641776 818.29547 4287540358
165.5471 -15.719816 818.38977 4286949763
165.93298 -15.647687 818.474 4286884224
166.51244 -15.723635 818.58545 4286884478
166.89755 -15.649051 818.66663 4286883709
167.4718 -15.726441 818.74969 4287276925
167.84834 -15.65157 818.78918 4287539583
168.41544 -15.725796 818.8363 4287212669
168.7825 -15.64861 818.8291 4286949753
169.34303 -15.725925 818.84119 4287408503
169.70964 -15.652729 818.83374 4287278459
170.27133 -15.727281 818.85065 4287082362
170.64328 -15.650885 818.86871 4286754940
171.21309 -15.726956 818.92175 4287411585
171.59425 -15.652997 818.98608 4287740036
145.39574 -15.226831 816.72321 4283857732
145.8342 -15.260313 816.80664 4283725889
146.37151 -15.234687 817.03577 4284449086
146.83067 -15.275257 817.21973 4284055107
147.35632 -15.239531 817.37219 4283923517
147.80203 -15.273633 817.49677 4284251716
148.30482 -15.236485 817.51892 4284186682
148.72348 -15.26517 817.4906 4283858239
149.21106 -15.232235 817.42792 4283333182
149.62061 -15.26904 817.35132 4283922756
150.09663 -15.244226 817.29156 4283925569
150.51248 -15.278995 817.22388 4284188491
150.99544 -15.242882 817.19324 4284847704
151.43979 -15.273955 817.22156 4286031215
151.93039 -15.245753 817.28851 4287475842
152.39409 -15.272354 817.37756 4287278979
152.88702 -15.243255 817.46924 4287475330
153.35216 -15.269416 817.56427 4287804034
153.84595 -15.245387 817.65558 4287736956
154.30463 -15.276135 817.71967 4287933823
154.78935 -15.251598 817.76044 4288261760
155.24188 -15.280025 817.79205 4288065669
155.72389 -15.252753 817.81598 4288262276
156.17209 -15.27922 817.82654 4287606400
156.64944 -15.250919 817.82581 4287277692
157.09715 -15.278738 817.83435 4287540606
157.57909 -15.252569 817.85474 4286949756
158.03204 -15.279283 817.89001 4287015804
158.52325 -15.250342 817.9411 4286818944
158.97891 -15.278751 818.0069 4286292856
159.48036 -15.252933 818.09198 4286160505
159.93869 -15.284382 818.18787 4286356598
160.44429 -15.255315 818.27753 4286027637
160.89758 -15.286425 818.36255 4285960812
161.39784 -15.257321 818.42303 4286290288
161.84337 -15.287085 818.46924 4286553456
162.33472 -15.26005 818.49695 4286881653
162.77637 -15.29104 818.50989 4287079293
163.26012 -15.260472 818.513 4287210629
163.70439 -15.286888 818.52448 4286817916
164.18863 -15.261055 818.54321 4286752120
164.64508 -15.29092 818.60071 4286685818
165.13727 -15.26473 818.65723 4286620286
165.60054 -15.293808 818.74982 4286686336
166.10172 -15.268674 818.84705 4286554747
166.56741 -15.297898 818.95251 4286488440
167.06734 -15.270774 819.0423 4286619512
167.5265 -15.298948 819.1145 4287013501
168.01671 -15.272887 819.15448 4286948219
168.46945 -15.301134 819.19531 4286752119
168.95039 -15.271712 819.18787 4286752631
169.3969 -15.298792 819.19946 4286620274
169.87807 -15.273325 819.19238 4286817397
170.32619 -15.303106 819.21307 4286883193
170.81462 -15.274336 819.24005 4286883449
171.27008 -15.300008 819.29614 4286950011
171.76842 -15.27243 819.36768 4287081336
145.35725 -14.700642 817.04248 4282605883
145.92804 -14.774332 817.13934 4281951803
146.33037 -14.706717 817.32703 4282803260
146.91986 -14.783124 817.52692 4282149695
147.30862 -14.716989 817.65533 4282803517
147.88728 -14.789169 817.79437 4282871875
148.26273 -14.717735 817.83063 4282935360
148.81738 -14.786595 817.83331 4282741317
149.18164 -14.715281 817.8111 4282935105
149.72469 -14.787122 817.76166 4282872642
150.08842 -14.716215 817.71295 4282677321
150.62425 -14.791101 817.65918 4283860823
150.98985 -14.716197 817.62952 4285896554
151.53728 -14.789759 817.6485 4286161786
151.91722 -14.714049 817.68628 4287278207
152.47932 -14.790524 817.76257 4287015038
152.8632 -14.716201 817.82977 4287409278
153.43459 -14.791313 817.92963 4287868798
153.82321 -14.717646 818.0116 4287015799
154.38734 -14.795914 818.08331 4287605883
154.76801 -14.722282 818.12427 4287737214
155.32684 -14.799349 818.16412 4287211644
155.70605 -14.72461 818.1864 4287475070
156.25914 -14.799565 818.20642 4287146108
156.63425 -14.722406 818.20654 4287080314
157.19011 -14.797113 818.22412 4287670654
157.56834 -14.722308 818.24615 4287276665
158.13037 -14.796141 818.28979 4286947705
158.51294 -14.721557 818.33868 4286422387
159.08154 -14.797304 818.41022 4285829999
159.46825 -14.723905 818.48535 4285829741
160.04092 -14.80093 818.58521 4285959787
160.4294 -14.728473 818.66089 4285040227
160.99837 -14.804158 818.74854 4285301596
161.37959 -14.72927 818.79871 4284909406
161.94391 -14.804366 818.85095 4285500515
162.31841 -14.731349 818.87689 4285566054
162.87885 -14.806293 818.89807 4286025582
163.24731 -14.731952 818.90393 4286880118
163.80748 -14.805578 818.92743 4286946423
164.18265 -14.731201 818.95239 4286356336
164.74979 -14.809184 819.02185 4286815348
165.13454 -14.736183 819.08167 4286751610
165.70654 -14.813962 819.18683 4286686334
166.10103 -14.737532 819.28143 4286816635
166.67586 -14.815374 819.39752 4286749561
167.0668 -14.74139 819.47595 4286946426
167.63295 -14.819523 819.54779 4287012474
168.01167 -14.743497 819.57562 4286750840
168.57265 -14.820824 819.61047 4286292087
168.94223 -14.74412 819.59406 4286356851
169.4978 -14.818922 819.60034 4286094192
169.86833 -14.742221 819.58972 4286094193
170.4286 -14.820839 819.61731 4286225267
170.80803 -14.746177 819.6499 4286750584
171.3784 -14.820591 819.72235 4286424182
171.76735 -14.742625 819.80292 4286359154
145.00737 -14.35199 817.35114 4282407222
145.51909 -14.317461 817.42725 4282473268
145.96104 -14.355965 817.52661 4282276150
146.4874 -14.32611 817.68164 4282276918
146.93779 -14.364594 817.8288 4282407991
147.46106 -14.331211 817.96527 4282737209
147.90604 -14.367573 818.08173 4282802493
148.41667 -14.332784 818.14471 4282934844
148.84564 -14.366822 818.17169 4282933822
149.34238 -14.333701 818.17065 4282476086
149.76532 -14.369491 818.15186 4283133253
150.24881 -14.338001 818.11926 4284054609
150.67548 -14.370188 818.07892 4284975456
151.15204 -14.336964 818.05298 4286224494
151.5961 -14.362143 818.06348 4286554742
152.07851 -14.334259 818.09625 4286882425
152.53658 -14.362975 818.15295 4286620791
153.02496 -14.338046 818.21649 4286686328
153.48801 -14.36708 818.29999 4286883189
153.98088 -14.341249 818.38287 4286818164
154.4408 -14.371273 818.45227 4286752627
154.92792 -14.344754 818.50238 4286424697
155.38307 -14.37376 818.54645 4286358386
155.8699 -14.344432 818.57861 4286950011
156.31911 -14.372507 818.60638 4286621046
156.8046 -14.342586 818.61646 4286291574
157.24995 -14.371971 818.63947 4286422129
157.74194 -14.34295 818.66455 4285961581
158.18803 -14.372916 818.70752 4285632358
158.68781 -14.341114 818.75555 4285237344
159.13478 -14.374243 818.81854 4284842591
159.64249 -14.344818 818.89117 4284513630
160.09068 -14.379092 818.97455 4284381017
160.60172 -14.347699 819.04913 4283920465
161.04498 -14.381676 819.12231 4284314196
161.55168 -14.347875 819.17212 4284315215
161.9897 -14.380054 819.21979 4284118610
162.49051 -14.348908 819.24988 4283856724
162.92668 -14.383146 819.27521 4284513113
163.42235 -14.351248 819.29205 4284842336
163.86249 -14.381482 819.32416 4285696614
164.36064 -14.35151 819.36597 4285696613
164.81253 -14.38362 819.44269 4286026605
165.3179 -14.355296 819.51898 4286487670
165.77599 -14.387785 819.62726 4286028911
166.2885 -14.357445 819.73486 4286421625
166.74712 -14.390463 819.84686 4286880378
167.25264 -14.363111 819.93109 4286814328
167.7043 -14.394038 819.99438 4286683765
168.19543 -14.365663 820.02167 4286487668
168.64328 -14.396681 820.05109 4286094192
169.12244 -14.368598 820.03308 4285633644
169.56802 -14.394518 820.03741 4285961582
170.04846 -14.364557 820.02661 4286158956
170.49921 -14.39363 820.05542 4285962096
170.99014 -14.367485 820.09424 4285634163
171.44981 -14.395761 820.1665 4286028654
171.95169 -14.367204 820.25275 4286751856
145.11737 -13.864631 817.76904 4282078774
145.50032 -13.795515 817.85992 4281882420
146.08014 -13.869582 817.99078 4282145077
146.47115 -13.802817 818.12604 4282210360
147.05421 -13.878002 818.27441 4282277179
147.44092 -13.808926 818.38556 4282474302
148.01476 -13.880455 818.49335 4282672962
148.39331 -13.807842 818.54602 4283131717
148.95078 -13.88169 818.57532 4283002177
149.32234 -13.811313 818.57446 4282018625
149.86629 -13.885403 818.55859 4283070797
150.23628 -13.811199 818.53021 4285564513
150.77478 -13.885493 818.5022 4285696871
151.14755 -13.806374 818.48297 4286355051
151.69435 -13.879676 818.50696 4286618481
152.07867 -13.805844 818.54205 4286356848
152.63667 -13.883871 818.61823 4286225520
153.02827 -13.80929 818.68835 4286093423
153.5975 -13.888084 818.7948 4285962350
153.99115 -13.813912 818.88135 4286618991
154.55582 -13.890987 818.97302 4286619249
154.94228 -13.817163 819.02136 4286093676
155.50484 -13.892678 819.08282 4285896040
155.88568 -13.816378 819.10596 4286094188
156.4424 -13.891391 819.14563 4286486639
156.81915 -13.815713 819.14856 4286616428
157.37982 -13.889191 819.17688 4286089573
157.75505 -13.815496 819.19293 4285038683
158.32072 -13.888719 819.24005 4284512593
158.6987 -13.815938 819.27606 4283461964
159.26884 -13.891024 819.34033 4283592781
159.6492 -13.820512 819.39368 4283459662
160.22118 -13.894595 819.47473 4283065932
160.60338 -13.821836 819.5296 4283393099
161.17133 -13.897199 819.59808 4283656009
161.54796 -13.822877 819.63306 4283328583
162.11394 -13.894546 819.68048 4283263560
162.4863 -13.821618 819.70435 4283328843
163.05145 -13.896457 819.73535 4283854926
163.42064 -13.825719 819.75293 4283460942
163.98872 -13.89738 819.79993 4284642901
164.3669 -13.823895 819.85071 4284708951
164.94246 -13.899879 819.94519 4284841562
165.33017 -13.827087 820.03058 4285171809
165.91006 -13.902222 820.15826 4285500263
166.30592 -13.82936 820.27039 4286155881
166.8862 -13.90971 820.39758 4286549101
167.27422 -13.836773 820.47278 4286615662
167.83989 -13.911728 820.53845 4286549612
168.21584 -13.836755 820.5517 4286092652
168.77534 -13.913769 820.57574 4286421873
169.14224 -13.837549 820.54492 4286027371
169.69414 -13.913562 820.54376 4285960552
170.06607 -13.836237 820.5249 4285568105
170.62601 -13.911167 820.56024 4285633901
171.01065 -13.836272 820.6026 4286092143
171.58298 -13.914866 820.69385 4285764201
171.97839 -13.837955 820.79083 4285830759
145.16461 -13.449788 818.24951 4282077491
145.68315 -13.416897 818.35938 4282275380
146.13002 -13.455509 818.48517 4282340663
146.65581 -13.423148 818.6333 4282538553
147.10257 -13.460362 818.75897 4283064642
147.61993 -13.426669 818.8714 4283656775
148.06284 -13.46209 818.96063 4283723086
148.56735 -13.428701 819.0119 4283658578
148.99998 -13.464222 819.03058 4284053843
149.48866 -13.433559 819.02338 4283990870
149.91972 -13.466524 819.00537 4284122454
150.40018 -13.433548 818.98218 4285566824
150.83545 -13.46172 818.95789 4286420335
151.31206 -13.428155 818.9444 4286550633
151.76288 -13.454214 818.97333 4286289515
152.25027 -13.428391 819.01276 4286158187
152.70926 -13.461197 819.0882 4285698921
153.20592 -13.43237 819.16211 4285370469
153.66641 -13.462476 819.26135 4285830249
154.17061 -13.434115 819.35388 4286223464
154.62579 -13.467141 819.44318 4286223212
155.12433 -13.435977 819.5022 4285762664
155.57471 -13.467658 819.56641 4285762663
156.07121 -13.435781 819.59882 4285959014
156.51538 -13.467179 819.64429 4285367649
157.01018 -13.436063 819.65356 4285299806
157.4496 -13.469603 819.68738 4284970072
157.94833 -13.436017 819.7016 4284246862
158.38721 -13.470056 819.74701 4283655494
158.89233 -13.436477 819.77838 4283196222
159.33037 -13.471612 819.83417 4282865984
159.84155 -13.439331 819.88123 4282341695
160.27826 -13.47745 819.94513 4282734657
160.79265 -13.441309 819.99347 4283063617
161.22476 -13.476528 820.04712 4283128643
161.73569 -13.439325 820.07642 4283326271
162.16551 -13.472898 820.11847 4282865984
162.67288 -13.438394 820.14093 4282735423
163.10384 -13.475378 820.17596 4283063363
163.60957 -13.442169 820.20129 4282735423
164.047 -13.476938 820.25659 4283392326
164.55896 -13.444635 820.3241 4283393863
165.00813 -13.478321 820.42554 4283656780
165.52843 -13.445504 820.53046 4284379985
165.98369 -13.480172 820.66431 4284577367
166.50899 -13.448709 820.79016 4284511571
166.96254 -13.487669 820.91608 4285103451
167.47612 -13.458233 820.99597 4285629024
167.92044 -13.490391 821.06091 4285629540
168.41786 -13.457349 821.07379 4285302116
168.85593 -13.490113 821.09521 4285435491
169.34128 -13.458237 821.06226 4285566823
169.77757 -13.488391 821.06134 4285566566
170.26595 -13.457642 821.04248 4285567337
170.7095 -13.489658 821.07739 4285239396
171.21002 -13.458085 821.11578 4285369706
171.66466 -13.491494 821.20441 4285828971
145.30235 -12.964689 818.82227 4281749812
145.68825 -12.896585 818.92639 4281946422
146.26938 -12.969319 819.06122 4282013239
146.65984 -12.900435 819.19128 4282539584
147.23647 -12.973872 819.31329 4283723854
147.62291 -12.903351 819.40698 4284577621
148.18715 -12.97662 819.48651 4284643677
148.56822 -12.903945 819.52179 4285235298
149.11459 -12.980402 819.53314 4285367399
149.49251 -12.906888 819.51819 4286025319
150.02731 -12.981774 819.49683 4285501287
150.40779 -12.903305 819.47479 4285698660
150.94667 -12.978615 819.46167 4286484839
151.32899 -12.90096 819.4635 4286222694
151.88397 -12.97566 819.52209 4285960039
152.27457 -12.903131 819.58258 4285829223
152.84599 -12.979405 819.70306 4285697637
153.24187 -12.904622 819.80634 4285436004
153.8221 -12.980299 819.95557 4285896039
154.21906 -12.908039 820.06964 4285698403
154.79311 -12.984439 820.1936 4286023524
155.17976 -12.910426 820.25287 4285891427
155.74806 -12.985003 820.32788 4285431392
156.12468 -12.912827 820.33978 4284905817
156.68367 -12.987767 820.37311 4283788625
157.05339 -12.914171 820.35156 4283458124
157.61322 -12.985293 820.35895 4283063366
157.98006 -12.912167 820.34161 4282931011
158.54507 -12.98542 820.36926 4282341438
158.91296 -12.914982 820.37286 4282077500
159.48393 -12.987012 820.41736 4282012732
159.85329 -12.916164 820.44232 4282011709
160.42758 -12.986917 820.50079 4282144319
160.79851 -12.916145 820.53589 4282406207
161.37192 -12.988252 820.58813 4282405949
161.74013 -12.915711 820.60992 4282470972
162.31146 -12.984855 820.64954 4282339899
162.6732 -12.912663 820.63928 4282339901
163.23874 -12.983432 820.64764 4282340928
163.60095 -12.913106 820.63989 4282471488
164.16847 -12.987958 820.66901 4282538049
164.5401 -12.917679 820.7074 4282406720
165.11858 -12.991287 820.79095 4282539586
165.50301 -12.919308 820.88074 4283195974
166.09335 -12.991615 821.03387 4283262533
166.48569 -12.919985 821.16095 4283065925
167.07625 -12.997616 821.30176 4283723594
167.46001 -12.925849 821.37592 4283789134
168.03169 -12.99951 821.44623 4284445524
168.40158 -12.927457 821.44958 4284971356
168.96335 -13.00338 821.46069 4284907615
169.32651 -12.92695 821.4209 4284973147
169.87672 -13.000132 821.41022 4285169500
170.24846 -12.923394 821.38702 4285367905
170.80409 -13.002142 821.42535 4285106531
171.19412 -12.928427 821.46436 4285105760
171.7699 -13.012796 821.57648 4285104991
145.3678 -12.55005 819.40515 4282274618
145.88899 -12.516111 819.52667 4282144569
146.33704 -12.555018 819.65576 4282735936
146.86192 -12.521704 819.79523 4283198282
147.30617 -12.558187 819.90228 4284119379
147.81657 -12.523258 819.9881 4284973146
148.25899 -12.555958 820.05548 4285237091
148.75618 -12.522161 820.08044 4285302377
149.19106 -12.559103 820.09143 4285566313
149.674 -12.530228 820.06647 4285696872
150.10925 -12.559619 820.0506 4285829480
150.59407 -12.524201 820.03217 4285763169
151.03249 -12.557328 820.03711 4285697630
151.51904 -12.525529 820.04041 4285500512
151.97215 -12.556541 820.11139 4285434720
152.47437 -12.524579 820.17889 4285237348
152.93544 -12.55473 820.31061 4285237858
153.45113 -12.521659 820.43414 4284844385
153.91237 -12.556604 820.58069 4284581976
154.43269 -12.527468 820.71112 4285105502
154.88565 -12.564705 820.82843 4284709207
155.39258 -12.533056 820.8869 4284313429
155.83499 -12.569283 820.94659 4284246607
156.33046 -12.53436 820.93024 4283917382
156.76169 -12.568595 820.94434 4282996800
157.25349 -12.532806 820.89331 4282733628
157.67729 -12.568447 820.88306 4282732604
158.17422 -12.53149 820.84296 4282535991
158.59918 -12.566795 820.85419 4282338618
159.1033 -12.533168 820.85016 4282339382
159.53261 -12.572153 820.8855 4282339132
160.04301 -12.533772 820.91217 4282274106
160.47589 -12.569798 820.96667 4282537024
160.99019 -12.533834 821.01172 4282865214
161.42274 -12.567907 821.06458 4282536252
161.93509 -12.530335 821.09857 4282339128
162.36041 -12.563812 821.11395 4282338619
162.85858 -12.525841 821.07489 4282339386
163.27631 -12.564919 821.05243 4282273851
163.77373 -12.529483 821.00848 4282405180
164.19482 -12.57322 821.00659 4282535997
164.70482 -12.538037 821.02148 4282667834
165.13667 -12.568744 821.07495 4282668093
165.66632 -12.52703 821.18323 4282865978
166.11794 -12.565607 821.33862 4282734140
166.65665 -12.536492 821.48669 4282801977
167.10475 -12.579094 821.62427 4283063359
167.63037 -12.545162 821.7074 4283261762
168.06526 -12.580676 821.77759 4283655499
168.57506 -12.538884 821.78094 4284049996
168.9976 -12.571809 821.79358 4284312912
169.49792 -12.536634 821.74866 4284772682
169.91632 -12.576234 821.74243 4284707667
170.42105 -12.542687 821.71796 4285036626
170.84863 -12.579 821.75708 4284578389
171.36681 -12.538157 821.79199 4284644178
171.80812 -12.579913 821.90125 4284315216
145.52635 -12.06389 820.09503 4282932801
145.9155 -11.997128 820.21326 4282933572
146.49875 -12.069562 820.35687 4284116301
146.89034 -12.000036 820.48932 4284643669
147.46706 -12.072782 820.60834 4284776794
147.85291 -12.000433 820.69476 4284975705
148.41428 -12.069788 820.75409 4285958754
148.7926 -11.995366 820.77032 4286155877
149.33681 -12.073576 820.76605 4286090086
149.71234 -12.002314 820.73309 4285631072
150.24976 -12.077575 820.7052 4286089823
150.63167 -11.99957 820.69379 4285565274
151.1823 -12.076328 820.71692 4285696347
151.5728 -12.003924 820.77142 4284974679
152.14665 -12.074829 820.89948 4285366617
152.54845 -11.996613 821.03424 4285038425
153.14026 -12.067678 821.24017 4284775000
153.54543 -11.995286 821.40857 4284184402
154.13539 -12.07489 821.58868 4283593294
154.52591 -12.010072 821.69202 4283525961
155.0976 -12.085979 821.77313 4283195202
155.46863 -12.014277 821.77112 4282865472
156.02481 -12.086346 821.75458 4282537531
156.37798 -12.013635 821.67145 4281945914
156.92329 -12.083312 821.59857 4281749815
157.27261 -12.009496 821.49695 4282142524
157.81868 -12.079428 821.4267 4282210109
158.17348 -12.007618 821.35638 4281356347
158.72694 -12.081356 821.33673 4281816379
159.09367 -12.00912 821.31592 4282472260
159.65666 -12.081297 821.34454 4282408519
160.03226 -12.007926 821.37054 4282604358
160.60568 -12.078442 821.43616 4282867783
160.98334 -12.006907 821.48871 4282800709
161.56308 -12.078543 821.57007 4282340928
161.933 -12.004594 821.59784 4281945659
162.49669 -12.069479 821.5954 4281879608
162.847 -12.00182 821.52606 4282142012
163.39874 -12.072961 821.4613 4282011965
163.74602 -12.000264 821.37964 4282405440
164.3015 -12.079275 821.32996 4281751108
164.65303 -12.01131 821.29974 4282143814
165.23216 -12.079462 821.33893 4281555521
165.60933 -12.007915 821.43597 4281225788
166.21585 -12.078827 821.60864 4281489466
166.59422 -12.011831 821.74335 4281553726
167.20302 -12.080916 821.89557 4281819459
167.57503 -12.009057 821.96844 4282146120
168.16212 -12.08149 822.04401 4282017866
168.51959 -12.014613 822.04431 4282606157
169.09216 -12.083486 822.04645 4282477384
169.44655 -12.007279 822.0036 4282607433
170.00227 -12.078856 821.98694 4282675528
170.36816 -12.005883 821.96454 4282936654
170.92078 -12.087777 822.00494 4282414411
171.3138 -12.015121 822.0365 4282674253
171.89616 -12.112111 822.16327 4282282311
145.11221 -11.609527 820.41534 4283262281
145.56126 -11.651309 820.54712 4283393607
146.09225 -11.614104 820.69897 4283328842
146.54778 -11.65497 820.85938 4284314708
147.08319 -11.615937 821.04108 4284316248
147.54073 -11.657 821.21814 4284318290
148.06097 -11.620236 821.35315 4285106520
148.51086 -11.650552 821.45862 4284909143
149.01378 -11.615743 821.5072 4284514137
149.4519 -11.652717 821.5365 4284907864
149.94116 -11.621735 821.52087 4284841817
150.3714 -11.656258 821.49316 4285038935
150.86272 -11.62296 821.47046 4284841299
151.3031 -11.65904 821.51526 4284775762
151.81168 -11.627562 821.58374 4284643666
152.27094 -11.663068 821.73077 4284183118
152.79826 -11.616908 821.88092 4283657036
153.26404 -11.639425 822.07977 4283196487
153.79713 -11.611408 822.24823 4282604866
154.24706 -11.660044 822.3725 4282668605
154.76155 -11.631863 822.42853 4282602809
155.18893 -11.672029 822.44568 4282338360
155.67931 -11.634667 822.37323 4282075955
156.09108 -11.671376 822.30658 4282403640
156.56572 -11.631941 822.14905 4282601527
156.96867 -11.665668 822.03888 4282601791
157.44279 -11.626069 821.8916 4282734657
157.85164 -11.660819 821.80096 4283129419
158.33371 -11.624982 821.70819 4283589969
158.75555 -11.658658 821.67407 4283524948
159.24866 -11.624552 821.65082 4283722837
159.68355 -11.660164 821.67316 4283723093
160.19168 -11.622948 821.71124 4283525974
160.63252 -11.657831 821.77924 4283657046
161.15108 -11.622743 821.85504 4283524942
161.59152 -11.656006 821.9328 4282998346
162.1049 -11.615056 821.96869 4282406723
162.52309 -11.652405 821.94617 4282208061
163.02994 -11.615318 821.94806 4281946427
163.45114 -11.657821 821.94019 4282668096
163.94925 -11.621637 821.89911 4283195453
145.10657 -11.084875 820.88269 4283722059
145.69025 -11.156552 821.0296 4283854672
146.0845 -11.087019 821.17377 4284051021
146.6752 -11.157664 821.35651 4284117841
147.07921 -11.087835 821.55548 4284315472
147.68703 -11.165972 821.82715 4283857487
148.09424 -11.099625 822.0437 4283922762
148.6787 -11.171628 822.25146 4284315979
149.0658 -11.096417 822.32269 4284052297
149.62991 -11.164813 822.3667 4284511053
150.005 -11.102542 822.34686 4284576847
150.55603 -11.173732 822.2879 4284576847
150.91273 -11.101614 822.23553 4284379721
151.47789 -11.174284 822.25018 4284247627
151.87212 -11.111373 822.40112 4284246087
152.47899 -11.178996 822.64111 4283391298
152.8989 -11.09199 822.92749 4282668346
153.51949 -11.145633 823.24249 4281815096
153.90971 -11.091446 823.3653 4281878068
154.48817 -11.186028 823.4519 4281418543
154.84885 -11.121371 823.41827 4281417775
155.3829 -11.187425 823.2674 4281352749
155.71764 -11.1131 823.09698 4281615668
156.23486 -11.180208 822.87061 4282077243
156.56241 -11.10587 822.65106 4282734661
157.07922 -11.17506 822.43762 4282867786
157.41408 -11.100703 822.25659 4283525203
157.94081 -11.17094 822.11273 4284183139
158.29243 -11.096156 822.00458 4286153073
158.83452 -11.169754 821.94537 4285366129
159.20212 -11.096015 821.91608 4285564269
159.76158 -11.167086 821.9364 4285826419
160.14473 -11.090557 821.97797 4285563244
160.72052 -11.163845 822.06091 4284577636
161.10825 -11.09303 822.14624 4283986778
161.69223 -11.161934 822.25049 4284051031
162.0676 -11.089736 822.29132 4283129420
162.64243 -11.156817 822.34338 4282865474
163.01318 -11.094679 822.37341 4282405953
163.58351 -11.166977 822.39825 4282736445
145.23296 -10.701868 821.18805 4284116291
145.68744 -10.743029 821.35138 4284182089
146.23375 -10.700937 821.54297 4283920446
146.70056 -10.751153 821.74963 4283920452
147.25546 -10.705099 822.01147 4284183615
147.7373 -10.75475 822.31952 4284183366
148.29805 -10.716197 822.64673 4283985468
148.80084 -10.747979 823.07123 4283590208
149.3647 -10.71316 823.40533 4283328058
149.83344 -10.759885 823.64398 4283589183
150.37633 -10.725524 823.86816 4283392834
150.82271 -10.766143 823.96967 4283457597
151.33913 -10.729141 824.03192 4283523386
151.78105 -10.770655 824.11609 4283193657
152.28639 -10.734068 824.12036 4283257910
152.72838 -10.76727 824.20642 4282600499
153.23552 -10.707497 824.21448 4282008617
153.66739 -10.728745 824.24811 4281548073
154.16605 -10.703153 824.21503 4281219365
154.57811 -10.778397 824.14441 4281481257
155.05206 -10.729856 823.98236 4281350952
155.43906 -10.773277 823.78027 4281482283
155.89165 -10.728872 823.5069 4281681972
156.26532 -10.761069 823.23468 4282603073
156.71165 -10.719396 822.94049 4283591509
157.09326 -10.75415 822.70245 4284118360
157.54745 -10.714223 822.47797 4284907366
157.94955 -10.744637 822.32208 4285828211
158.4167 -10.709891 822.19415 4287010183
158.84039 -10.741763 822.12567 4286814851
159.3233 -10.708451 822.09204 4287140992
159.76588 -10.739599 822.10834 4286748286
160.27115 -10.703937 822.15845 4285696376
160.72066 -10.739223 822.23944 4284776808
161.24188 -10.705493 822.3418 4283987808
161.69122 -10.736589 822.4491 4283723607
162.21033 -10.699156 822.51392 4282999632
162.64682 -10.738713 822.58179 4282997063
163.16551 -10.707002 822.63885 4281883712
149.11537 -10.290508 824.72205 4282542649
149.5432 -10.215965 825.03571 4282668850
150.17372 -10.270123 825.34937 4282930481
150.58304 -10.320862 825.55518 4283126836
151.19109 -10.403295 825.77246 4282602034
151.5901 -10.351257 825.93243 4282535469
152.14752 -10.428875 825.90161 4282272298
152.51692 -10.381592 825.89972 4282271273
153.06317 -10.459107 825.80457 4281680165
153.40346 -10.383931 825.65063 4281285410
153.94527 -10.2162 825.53265 4280891681
154.25998 -10.189584 825.24664 4281021730
154.77963 -10.309691 825.0144 4281087267
155.0883 -10.214233 824.70166 4280890662
155.56911 -10.276295 824.26434 4281220136
155.87062 -10.202134 823.91736 4281681717
156.35124 -10.265399 823.49481 4282866245
156.66063 -10.188795 823.17908 4284642394
157.15891 -10.256167 822.87946 4285432168
157.48442 -10.179585 822.64514 4286155884
157.998 -10.24968 822.45233 4287075452
158.34657 -10.174757 822.31873 4287799941
158.87846 -10.249699 822.22961 4287668104
159.24693 -10.172919 822.19208 4287668611
159.8054 -10.244429 822.20288 4287469443
160.19167 -10.170577 822.25006 4286549880
160.76961 -10.245285 822.33618 4285498735
161.16167 -10.174162 822.43848 4284447330
161.74126 -10.241022 822.50995 4284051034
162.1205 -10.170886 822.56976 4283392336
162.69997 -10.238196 822.64471 4283522370
150.41576 -10.022223 826.83636 4282403110
150.92137 -9.8398514 826.8421 4282140452
151.35196 -10.052888 826.85211 4282140195
151.84499 -9.8353844 826.7865 4282204960
152.2744 -9.8815269 826.79712 4282073377
152.74979 -9.8340168 826.62909 4282007326
153.16385 -9.8555708 826.56372 4281481755
153.98238 -9.8191681 825.94122 4280890392
154.76036 -9.8694153 825.11951 4280955678
155.21054 -9.8176746 824.83606 4280694051
155.55087 -9.8608551 824.38342 4281219623
156.00417 -9.8113489 824.11285 4281682740
156.3481 -9.8399754 823.68317 4282932294
156.78036 -9.7962055 823.31238 4284445018
157.14902 -9.8275738 823.00635 4285170787
157.59184 -9.7890444 822.73553 4285696360
157.9888 -9.8198986 822.53741 4286551927
158.44511 -9.7854452 822.38342 4287143041
158.8699 -9.8170052 822.28931 4286947715
159.34163 -9.7867641 822.24194 4287537284
159.79135 -9.8152857 822.24927 4286749054
160.29074 -9.7830601 822.29712 4285564782
160.74586 -9.8176613 822.37738 4284972904
161.2662 -9.7848587 822.48865 4284249439
161.71007 -9.8175335 822.55408 4283590738
162.22943 -9.7789497 822.62048 4282474057
162.66667 -9.819191 822.69257 4282864958
154.83549 -9.3669357 825.31342 4280824344
155.13165 -9.2894421 824.94226 4280824353
155.62717 -9.3520994 824.58173 4281088292
155.9377 -9.2780428 824.28247 4281418800
156.40285 -9.3379679 823.77667 4282538046
156.70155 -9.2600107 823.40338 4284051025
157.18704 -9.3286285 823.05109 4285300574
157.50616 -9.2538109 822.77893 4285105248
158.01187 -9.3253746 822.54858 4286288750
158.35452 -9.249711 822.39172 4286224758
158.88306 -9.3240185 822.27679 4286094203
159.2451 -9.2496662 822.22534 4286750334
159.8051 -9.3216562 822.224 4286355577
160.18851 -9.2489948 822.26489 4285302635
160.76604 -9.3230028 822.34198 4284775779
161.159 -9.2504005 822.44446 4284379228
161.73703 -9.3188095 822.51239 4283524174
162.11934 -9.2487974 822.57336 4282143555
162.69797 -9.3191299 822.6452 4282929968
154.82764 -8.9367733 825.47858 4280758296
155.25064 -8.8876524 825.0592 4280496414
155.60689 -8.9310465 824.68964 4281153318
156.04437 -8.8832722 824.3349 4281550125
156.37573 -8.9100409 823.83838 4282537278
156.79662 -8.8664598 823.41998 4283918412
157.15993 -8.8992434 823.07318 4284511066
157.59497 -8.8637276 822.77429 4284643931
157.98843 -8.8939686 822.54602 4285500267
158.43896 -8.8605003 822.37366 4286355571
158.86223 -8.8924332 822.2597 4286159482
159.33177 -8.8618307 822.19818 4286618752
159.77884 -8.8890057 822.1947 4286027128
160.2733 -8.8574562 822.22974 4285762414
160.72816 -8.8941011 822.29669 4285169254
161.24362 -8.8613558 822.39667 4284575577
161.688 -8.8936749 822.45227 4283916624
162.2067 -8.8558445 822.51349 4282340160
162.64114 -8.8930893 822.57477 4282469687
154.92035 -8.3886795 825.76764 4280561943
155.1821 -8.3541508 825.22125 4280496415
155.66058 -8.4207096 824.76965 4281023525
155.957 -8.3485203 824.39563 4281419828
156.41521 -8.4106216 823.85193 4282211907
156.7059 -8.3332949 823.44617 4283131728
157.18715 -8.4004698 823.06189 4283724122
157.50098 -8.3268032 822.77216 4284972391
158.00423 -8.3990736 822.51758 4284977009
158.3419 -8.3254347 822.34674 4286290810
158.86942 -8.3990479 822.21527 4286423173
159.22847 -8.3242359 822.1496 4287275655
159.78618 -8.3953753 822.13599 4285961854
160.16431 -8.3227196 822.16156 4286418805
160.73997 -8.3960209 822.21893 4285695597
161.1273 -8.3253613 822.30237 4284708448
161.7041 -8.3951397 822.35388 4284246099
162.08458 -8.3222466 822.40442 4282668103
162.65956 -8.391921 822.45801 4282601006
154.90747 -8.0058088 825.91406 4280759067
155.28381 -7.9603996 825.24493 4280497953
155.62227 -7.9962349 824.78235 4281549360
156.04713 -7.9558382 824.37067 4282144317
156.37808 -7.9849787 823.86157 4283066188
156.79279 -7.9407535 823.42297 4284052570
157.15463 -7.9711699 823.05579 4284775782
157.58472 -7.9378757 822.74426 4285303660
157.97714 -7.9698629 822.49725 4286027893
158.42548 -7.9357615 822.31152 4287670146
158.84583 -7.9654641 822.18378 4288066450
159.31248 -7.9343743 822.10748 4288457877
159.75717 -7.9652195 822.0921 4287144068
160.24545 -7.933753 822.11102 4286813816
160.69891 -7.9656529 822.15686 4286287732
161.20705 -7.9326239 822.23431 4285562478
161.65089 -7.9698172 822.27466 4284443995
162.16776 -7.9283161 822.32172 4282932555
162.59764 -7.9659624 822.36523 4282469945
155.11501 -7.4226651 824.87213 4281221419
155.61467 -7.4911323 824.52771 4282077754
155.9192 -7.4189582 824.21283 4283590734
156.40878 -7.4846163 823.854 4284578403
156.69717 -7.4074249 823.42969 4285630829
157.17351 -7.4774222 823.03003 4285632370
157.48694 -7.4042573 822.72974 4286028920
157.98851 -7.4761634 822.45905 4286752384
158.32468 -7.4018731 822.27722 4287739018
158.85188 -7.4721708 822.13507 4288854939
159.20872 -7.3973713 822.05731 4289247383
159.76147 -7.4703264 822.03534 4287800197
160.14035 -7.3972168 822.04803 4286553209
160.70918 -7.4697218 822.08807 4286813309
161.09628 -7.3972964 822.15369 4286743924
161.66762 -7.470191 822.19287 4284574815
162.04868 -7.3956614 822.23157 4282735436
162.62036 -7.465138 822.26965 4282602035
155.00291 -7.0760555 826.43335 4281023774
155.30389 -7.0318227 825.35107 4281553462
155.62701 -7.0635357 824.81799 4282736704
156.03647 -7.0258532 824.35059 4284183384
156.3744 -7.0563302 823.8512 4285368425
156.77722 -7.0189123 823.39465 4286354810
157.14146 -7.0517426 823.00854 4286488956
157.56633 -7.01688 822.68835 4287344009
157.95967 -7.0469484 822.4295 4287411339
158.4057 -7.0129137 822.23517 4288330389
158.82591 -7.0419936 822.10406 4288265877
159.29379 -7.0055809 822.02075 4288394136
159.73784 -7.0366745 822.00262 4287801739
160.22162 -7.0091448 822.01398 4287471740
160.67569 -7.040338 822.04883 4286288499
161.1781 -7.0057497 822.11108 4285168749
161.62323 -7.0421457 822.14453 4284312928
162.13832 -7.0017538 822.1803 4282867793
162.56551 -7.0402684 822.21179 4282470459
155.1277 -6.495451 824.94751 4282274100
155.62358 -6.5621705 824.57947 4283393348
155.91759 -6.4893756 824.22253 4284315477
156.3983 -6.55898 823.83746 4285564262
156.68497 -6.4842572 823.39655 4286814839
157.15683 -6.5555592 822.98358 4286883202
157.47063 -6.4815316 822.67725 4287672969
157.97198 -6.5524287 822.40033 4287542673
158.30843 -6.4767728 822.2135 4288593559
158.83748 -6.5467138 822.07153 4287936921
159.1938 -6.4726663 821.98999 4287868301
159.74611 -6.5468311 821.96686 4287143807
160.12411 -6.4731064 821.97455 4286814583
160.6918 -6.5427709 822.00769 4286222195
