# .PCD v0.7 - Point Cloud Data file format
VERSION 0.7
FIELDS x y z rgb
SIZE 4 4 4 4
TYPE F F F U
COUNT 1 1 1 1
WIDTH 1143
HEIGHT 1
VIEWPOINT 0 0 0 1 0 0 0
POINTS 1143
DATA ascii
161.92357 -9.2529926 780.88153 4281744940
162.33176 -9.2851868 780.91699 4281677866
162.82896 -9.2552357 780.97296 4281415206
163.2383 -9.2875128 781.0274 4281349413
163.73814 -9.2575397 781.09479 4280889635
164.15405 -9.2910528 781.1803 4280757536
164.66156 -9.2594633 781.28125 4280757535
165.07806 -9.2899294 781.37006 4280822558
165.58514 -9.2623863 781.46674 4280690972
165.99355 -9.2992897 781.51855 4280756766
166.48958 -9.2667933 781.56042 4280822816
166.88898 -9.2947102 781.57098 4280625950
167.37555 -9.2588024 781.56702 4280494108
167.7673 -9.2898722 781.54303 4280428315
168.24428 -9.2606974 781.49292 4280231705
168.63045 -9.2929058 781.44507 4280625695
169.11061 -9.2586527 781.40894 4281085987
146.20444 -8.8084564 779.46838 4282866236
146.56932 -8.7440538 779.53436 4282932032
147.105 -8.8094521 779.59149 4283983177
147.4704 -8.7446051 779.64429 4284705617
148.00072 -8.8111048 779.67047 4284311380
148.36086 -8.7469206 779.69635 4284638803
148.88513 -8.8108568 779.68951 4283784780
149.23946 -8.7471828 779.68652 4283456072
149.76775 -8.8115406 779.66638 4283390535
150.11899 -8.7469196 779.67096 4283258436
150.65361 -8.8100624 779.67761 4283060033
151.00909 -8.746582 779.71838 4283388225
151.55685 -8.810751 779.77527 4282928187
151.91937 -8.7505398 779.86768 4282402613
152.47757 -8.8140678 779.97583 4282533684
152.84468 -8.75035 780.09283 4282271284
153.40442 -8.814147 780.20648 4282074932
153.76894 -8.7510977 780.31049 4282205748
154.32172 -8.8140392 780.38617 4281877554
154.67647 -8.751132 780.4408 4282271029
155.21368 -8.8152246 780.44995 4281878576
155.55943 -8.7511625 780.44592 4281616176
156.08069 -8.8143244 780.40326 4281945135
156.42099 -8.7462854 780.35333 4282996027
156.93126 -8.8113079 780.27667 4284573512
157.27345 -8.7472811 780.21564 4285494610
157.78568 -8.8128653 780.15277 4285561432
158.133 -8.7466106 780.1228 4286021209
158.65927 -8.8105192 780.10986 4286873698
159.01453 -8.745903 780.12 4286808928
159.55782 -8.8108616 780.15686 4286151520
159.91479 -8.7467098 780.19812 4284508749
160.46724 -8.8089848 780.25848 4282930493
160.82199 -8.7429466 780.30206 4281877555
161.37137 -8.8062944 780.33667 4281744938
161.71977 -8.7469873 780.3678 4280956197
162.2652 -8.8111191 780.38989 4280955424
162.61485 -8.746212 780.42737 4280757792
163.16496 -8.8101959 780.47009 4280758050
163.51831 -8.7497988 780.52557 4281085476
164.07651 -8.8133364 780.60443 4280626720
164.43469 -8.7486916 780.68335 4280560927
164.99402 -8.8146248 780.76575 4280889120
165.35077 -8.7561665 780.83899 4280954401
165.90471 -8.818696 780.89355 4281085730
166.25458 -8.7505426 780.93445 4281020195
166.80151 -8.8119907 780.95428 4280889122
167.14423 -8.7504501 780.96332 4280757793
167.68617 -8.8144226 780.95758 4280888864
168.02528 -8.7522707 780.95056 4280626720
168.56628 -8.8157377 780.94092 4281152293
168.90765 -8.7478456 780.94391 4281612843
146.08946 -8.3961697 779.02234 4283982920
146.5675 -8.3674088 779.09503 4283523651
146.99185 -8.3943472 779.14362 4284442701
147.46748 -8.3662767 779.20221 4285165651
147.8878 -8.3954248 779.22736 4285101402
148.35518 -8.3701363 779.25879 4285297500
148.7735 -8.3985748 779.25702 4284772183
149.23856 -8.3699713 779.25812 4284509011
149.65169 -8.3970871 779.24597 4284246095
150.12415 -8.367074 779.25293 4284310096
150.53377 -8.3980284 779.25555 4284243790
151.01727 -8.3666496 779.28705 4283914565
151.42734 -8.3964634 779.32324 4283126333
151.92258 -8.3682995 779.39777 4282469430
152.33701 -8.401885 779.47211 4282797368
152.83727 -8.3691769 779.56934 4282797625
153.25388 -8.4016218 779.65552 4282797882
153.75494 -8.371171 779.75354 4282863161
154.16928 -8.4017944 779.82898 4282534713
154.6651 -8.3700075 779.89807 4282534200
155.07146 -8.4014101 779.93396 4282468149
155.55511 -8.3707027 779.95441 4282140205
155.95645 -8.400815 779.9516 4282073644
156.42818 -8.3697329 779.92682 4282009641
156.82518 -8.3985119 779.8891 4282928436
157.28963 -8.3684006 779.84119 4283520308
157.68582 -8.3975019 779.80048 4283915585
158.15793 -8.366888 779.77399 4284177981
158.56018 -8.396615 779.76465 4284375367
159.0383 -8.3659458 779.76678 4284178499
159.44696 -8.3966494 779.78851 4283324735
159.93279 -8.3658972 779.81189 4282469684
160.34346 -8.3946819 779.84625 4282007343
160.83015 -8.3636904 779.87115 4281350182
161.23384 -8.3954678 779.88782 4281348902
161.72252 -8.3665333 779.90717 4281020960
162.12415 -8.3994818 779.92712 4280954400
162.61664 -8.3666105 779.96326 4281020446
163.02222 -8.3979387 780.00305 4281151267
163.5204 -8.3683882 780.06433 4281217316
163.93155 -8.4011946 780.1308 4281283109
164.43419 -8.3697615 780.211 4281217826
164.8455 -8.4031944 780.27948 4281218085
165.34625 -8.3725481 780.34821 4281349416
165.75291 -8.4028444 780.396 4281349160
166.2495 -8.3676281 780.44312 4281152295
166.65065 -8.3988266 780.46478 4281152551
167.14175 -8.3699961 780.48468 4281283880
167.53877 -8.4035168 780.48712 4281218085
168.02727 -8.3725986 780.49426 4281021731
168.42285 -8.4025154 780.49219 4281415978
168.91249 -8.3646116 780.50262 4282007089
146.02568 -7.926846 778.57532 4284970583
146.39391 -7.8628178 778.64301 4284312914
146.9256 -7.9264092 778.70081 4284838225
147.29623 -7.8598466 778.76471 4285168472
147.82538 -7.9256554 778.80444 4285759583
148.19026 -7.8632369 778.84076 4285955936
148.71313 -7.9284825 778.84613 4285758303
149.07204 -7.8624992 778.85217 4285364571
149.59845 -7.9261932 778.84137 4285101403
149.95506 -7.8616228 778.84772 4285230935
150.485 -7.9245062 778.8454 4284769869
150.84094 -7.8607569 778.86847 4283457090
151.38083 -7.9246364 778.89471 4283390525
151.73827 -7.8633828 778.94757 4282864701
152.28606 -7.9243383 779.00647 4283323709
152.64359 -7.8597116 779.07605 4283192895
153.19362 -7.9251585 779.14502 4283455295
153.55232 -7.8660865 779.22083 4282864959
154.10229 -7.928236 779.28656 4282929981
154.45885 -7.864254 779.35126 4282995007
155.00409 -7.9266672 779.39124 4282863165
155.35403 -7.8642941 779.42401 4282468664
155.89066 -7.9276495 779.4325 4281615919
156.23698 -7.8627834 779.4353 4281155372
156.76445 -7.9248967 779.41119 4281484583
157.10965 -7.8603468 779.39404 4281616175
157.63336 -7.9243765 779.36401 4282208818
157.98207 -7.8597317 779.35974 4282534964
158.51276 -7.9231882 779.35492 4282273588
158.86459 -7.8588476 779.36621 4282206259
159.40306 -7.921186 779.38251 4281353518
159.75345 -7.8562651 779.40228 4281285162
160.29601 -7.9215369 779.42334 4280825892
160.6441 -7.8596568 779.43982 4281086758
161.18477 -7.9223862 779.44434 4280890405
161.52939 -7.8615689 779.45782 4281217831
162.0728 -7.9248447 779.47351 4281021733
162.42044 -7.8598766 779.50281 4281086757
162.96941 -7.9229212 779.54401 4281218342
163.32199 -7.8634033 779.59735 4281481001
163.87698 -7.9275007 779.66498 4281678379
164.23276 -7.8640447 779.73346 4281612842
164.78813 -7.926415 779.80145 4281547308
165.14229 -7.8639679 779.86365 4281678382
165.69514 -7.9257779 779.91614 4281415724
166.04588 -7.8603339 779.96313 4281350188
166.59464 -7.9224839 779.99475 4281350444
166.94086 -7.8632236 780.02173 4281678637
167.48679 -7.9293966 780.03784 4281612842
167.83115 -7.8666449 780.05713 4281219369
168.37495 -7.9251819 780.06293 4281745198
168.71901 -7.8565063 780.08093 4282533430
169.26398 -7.9182644 780.09052 4282599225
145.93834 -7.514997 778.22565 4285694303
146.4053 -7.4880276 778.29333 4284972125
146.83965 -7.511375 778.3454 4285497181
147.30585 -7.4841714 778.40765 4286220385
147.73795 -7.5122042 778.44696 4286089571
148.19623 -7.4880676 778.48407 4286154344
148.62653 -7.5138984 778.49664 4286286185
149.08284 -7.4872532 778.5058 4286088291
149.50739 -7.5125871 778.50476 4285365599
149.97 -7.4840775 778.513 4285101404
150.38907 -7.5124702 778.51605 4284705360
150.86024 -7.4859519 778.5351 4283786052
151.27638 -7.5155363 778.55548 4283653697
151.75566 -7.4844666 778.59686 4283391555
152.17232 -7.5135951 778.63885 4283587396
152.65448 -7.483089 778.69122 4283784263
153.07144 -7.5129032 778.73724 4283653193
153.55595 -7.4847794 778.79669 4283390534
153.97284 -7.5160599 778.84515 4283061826
154.45747 -7.4872551 778.90369 4283192898
154.87169 -7.5177546 778.93903 4283389764
155.35204 -7.486804 778.97473 4283192126
155.76337 -7.5170584 778.99512 4282666044
156.24255 -7.4873209 779.01025 4282075188
156.64616 -7.5155764 779.00763 4282337335
157.12451 -7.4801965 779.0014 4282534965
157.52315 -7.5083475 778.98981 4282534711
158.00696 -7.4793091 778.99438 4282403634
158.40575 -7.5129261 778.99823 4282533940
158.89146 -7.4791589 779.01062 4282533164
159.29204 -7.5079741 779.026 4282203693
159.77927 -7.4780211 779.04321 4281941545
160.18033 -7.5116649 779.06152 4281743913
160.66725 -7.4808531 779.07599 4281809962
161.0658 -7.513226 779.08356 4281678379
161.55305 -7.4823122 779.09906 4281744428
161.95416 -7.5142016 779.11749 4281875757
162.44508 -7.4826064 779.14972 4281876012
162.85036 -7.5151124 779.18945 4281875757
163.34682 -7.4830413 779.24554 4281941551
163.75546 -7.515862 779.30267 4282138928
164.25493 -7.4846811 779.36993 4282073391
164.66324 -7.515233 779.42651 4281942064
165.16194 -7.4817085 779.48779 4281810738
165.56761 -7.5140295 779.53308 4281744944
166.06366 -7.4819326 779.58038 4281679408
166.46602 -7.5136504 779.60999 4281679408
166.9593 -7.4839716 779.64215 4281942067
167.35963 -7.5181985 779.66217 4281942065
167.85196 -7.4854274 779.6889 4281745456
168.25008 -7.5134568 779.70068 4282008626
168.74234 -7.4782491 779.72461 4282468665
169.14069 -7.5085931 779.73846 4282600505
145.88632 -7.0480752 777.89325 4287007592
146.25665 -6.984416 777.95563 4286483047
146.78758 -7.0477304 778.01202 4285958754
147.15746 -6.9813828 778.07245 4286090853
147.68744 -7.0458417 778.12006 4286877290
148.05223 -6.9823556 778.15717 4287009132
148.57671 -7.0467229 778.17474 4286878062
148.93648 -6.9808159 778.18567 4286155622
149.46165 -7.0446372 778.18756 4285563490
149.82196 -6.980567 778.19666 4285627487
150.34933 -7.0447559 778.19885 4284969557
150.70671 -6.98177 778.21436 4284311886
151.24139 -7.0462112 778.23114 4284312141
151.59709 -6.9825225 778.26117 4284376398
152.13676 -7.042089 778.29559 4283982413
152.49028 -6.9775786 778.33173 4284310608
153.03038 -7.0422854 778.36823 4283654737
153.38712 -6.9810638 778.41016 4284047440
153.92615 -7.0428805 778.44897 4283391307
154.28366 -6.9792237 778.49542 4283522633
154.82112 -7.0438557 778.52551 4283851083
155.17575 -6.9815397 778.55682 4283785289
155.71196 -7.0467758 778.57697 4283718731
156.06381 -6.9844322 778.59802 4283783756
156.59689 -7.0442142 778.60187 4283062349
156.94774 -6.9768362 778.6087 4283652684
157.48074 -7.0380864 778.60468 4282602568
157.83237 -6.9739842 778.62036 4282601792
158.36949 -7.038033 778.63098 4282273852
158.71892 -6.9752989 778.65125 4281878839
159.2612 -7.0361996 778.66968 4282271283
159.60767 -6.9748755 778.69177 4282073908
160.15074 -7.0404558 778.71173 4282008883
160.49635 -6.9796863 778.73199 4282008627
161.03801 -7.0419431 778.74298 4281943089
161.38371 -6.9796968 778.76422 4282271028
161.92787 -7.041131 778.7854 4282468149
162.27559 -6.9778218 778.81696 4282468405
162.82411 -7.0409775 778.85785 4282533942
163.17531 -6.9787908 778.90613 4282665271
163.72673 -7.0401068 778.95947 4282665271
164.07942 -6.978745 779.01477 4282402613
164.63116 -7.0409727 779.06787 4282336822
164.98344 -6.9776378 779.12213 4282271287
165.53441 -7.0412397 779.16882 4281943350
165.88451 -6.9781961 779.21344 4281942837
166.43333 -7.0398226 779.24908 4281811507
166.78119 -6.9793568 779.28436 4282008373
167.3293 -7.0437016 779.31342 4282074166
167.67599 -6.9807682 779.34485 4282271030
168.22212 -7.0404425 779.36371 4282206519
168.56825 -6.9745822 779.3924 4282338103
169.11488 -7.0361977 779.41205 4282600503
169.46297 -6.9743309 779.4502 4282404151
145.81841 -6.6355672 777.62872 4287534194
146.28662 -6.6087098 777.68964 4286878319
146.7206 -6.6340775 777.74048 4285959010
147.18571 -6.6064639 777.79858 4286616170
147.61856 -6.6330452 777.84424 4287075695
148.07971 -6.607183 777.88055 4286812526
148.50505 -6.6353264 777.90192 4286484586
148.96486 -6.606945 777.91522 4286221930
149.3853 -6.6325054 777.92493 4286023781
149.85062 -6.6035075 777.93536 4286220133
150.27081 -6.6338906 777.94305 4286021728
150.73706 -6.60882 777.95709 4285626456
151.15868 -6.6372309 777.97278 4285560154
151.62755 -6.6055746 777.99579 4285362775
152.04968 -6.6329174 778.02167 4285231193
152.51729 -6.6050696 778.04749 4285034839
152.9386 -6.6324162 778.07245 4284378453
153.40877 -6.6032815 778.10577 4284114770
153.83032 -6.6304035 778.13507 4284311379
154.30225 -6.6031861 778.17719 4284246350
154.72351 -6.6313152 778.20404 4284509520
155.19347 -6.6029606 778.23511 4285034326
155.61417 -6.6363778 778.25897 4284837465
156.08618 -6.6102753 778.28357 4284377175
156.50081 -6.6355243 778.29449 4283917906
156.97639 -6.6002173 778.30481 4283851860
157.38318 -6.628654 778.30743 4283325772
157.86368 -6.5976844 778.32635 4282734660
158.26993 -6.6263361 778.34039 4282668611
158.75146 -6.5965147 778.36249 4282733378
159.15854 -6.6322365 778.38245 4282994498
159.64166 -6.6046438 778.40924 4282731578
160.04913 -6.633049 778.4325 4282797885
160.53534 -6.6005526 778.45947 4282863931
160.93845 -6.6330724 778.47644 4282600761
161.42767 -6.6006556 778.50311 4282732600
161.82928 -6.6310229 778.52625 4282929212
162.32014 -6.5985522 778.55927 4283126334
162.7242 -6.6329551 778.59521 4283060799
163.21823 -6.6012526 778.64148 4283388738
163.62328 -6.6302748 778.68335 4283257665
164.11937 -6.5982561 778.73596 4283321659
164.5244 -6.6315093 778.77972 4283059775
165.02135 -6.6003704 778.83356 4282863165
165.42587 -6.6338801 778.87555 4282535484
165.92125 -6.6011438 778.92047 4282403898
166.32426 -6.6321106 778.95508 4282403387
166.81862 -6.6004958 778.9942 4282403385
167.22084 -6.6337175 779.0246 4282337850
167.71465 -6.6007309 779.05981 4282206776
168.11424 -6.6307774 779.07996 4282272312
168.60823 -6.5975833 779.1134 4282272566
169.00777 -6.6290545 779.13483 4282534968
169.50412 -6.5967999 779.17731 4282601274
145.79112 -6.1678128 777.39606 4287206509
146.1557 -6.1061754 777.44989 4286812781
146.68863 -6.1686697 777.4989 4285828197
147.05246 -6.1047964 777.54852 4286812267
147.58527 -6.1678863 777.59302 4287272560
147.94513 -6.1041498 777.62482 4287075439
148.47391 -6.1671095 777.64703 4286615661
148.8298 -6.1036024 777.65875 4287008878
149.35713 -6.1661215 777.67163 4286877548
149.71506 -6.1021943 777.68225 4286746474
150.24321 -6.1657295 777.69287 4287008876
150.60017 -6.1041541 777.70514 4286679913
151.13081 -6.1689396 777.7215 4286416230
151.48749 -6.1042819 777.73895 4286218852
152.02106 -6.1658206 777.7619 4286021473
152.37453 -6.1026611 777.78119 4285562975
152.90797 -6.1644249 777.8031 4284907614
153.26479 -6.0997171 777.82898 4284774747
153.79799 -6.1624336 777.85773 4285101141
154.15671 -6.0999155 777.89423 4284839255
154.69034 -6.163898 777.92444 4285561437
155.04781 -6.1001496 777.95392 4285561693
155.58153 -6.1659594 777.98138 4285036125
155.93761 -6.1054835 778.00665 4284707161
156.46906 -6.1669245 778.02191 4284575319
156.82657 -6.0988417 778.03516 4284312148
157.3559 -6.1605558 778.0412 4284048975
157.71538 -6.0951376 778.06122 4283393102
158.24652 -6.1592398 778.07922 4283196754
158.60332 -6.097302 778.10242 4284048211
159.13956 -6.1622329 778.12695 4283587919
159.49239 -6.1000333 778.15552 4283456586
160.03151 -6.1627331 778.18317 4283325768
160.38248 -6.1003771 778.21362 4283194181
160.92273 -6.1630893 778.23529 4282997055
161.27492 -6.099978 778.26434 4282603071
161.81432 -6.1608219 778.28815 4283062850
162.16832 -6.0964136 778.31909 4283390278
162.70819 -6.1610074 778.35242 4283324486
163.06575 -6.0982137 778.39203 4283456073
163.60451 -6.1609921 778.42786 4283456842
163.96297 -6.0971398 778.47119 4283587399
164.50549 -6.1595631 778.51025 4283651908
164.86182 -6.0964546 778.55707 4283390533
165.40825 -6.1615553 778.59894 4283719753
165.7603 -6.0997076 778.63928 4282799682
166.30927 -6.1609468 778.67737 4282864704
166.65793 -6.0988212 778.7168 4282602303
167.20724 -6.159832 778.75397 4282733632
167.55479 -6.0965948 778.79041 4282535741
168.10245 -6.1584249 778.81738 4282470203
168.44969 -6.0961876 778.85291 4282338619
168.99776 -6.1575532 778.88098 4282667325
169.34639 -6.0951929 778.92285 4282995775
145.72665 -5.7575908 777.19989 4287405169
146.20242 -5.7298942 777.25378 4287601780
146.62576 -5.7598748 777.29749 4287206769
147.09814 -5.7301593 777.34717 4287075434
147.52097 -5.7589774 777.38806 4287469423
147.99031 -5.7287736 777.42047 4287666289
148.40616 -5.7576604 777.44257 4287469428
148.87503 -5.7282906 777.45532 4287731057
149.28654 -5.7596259 777.47034 4287797366
149.75803 -5.7279053 777.4809 4287600238
150.17209 -5.7556195 777.49213 4287470965
150.64116 -5.7278938 777.50372 4287404922
151.05933 -5.7604485 777.51953 4287140977
151.52605 -5.7307377 777.5343 4286943854
151.94731 -5.7587152 777.55347 4286944107
152.41219 -5.7294126 777.57007 4286156901
152.83583 -5.7549648 777.5885 4285566303
153.29974 -5.7250438 777.61224 4285631337
153.7242 -5.7531037 777.63708 4285562978
154.19046 -5.7273483 777.67242 4285562980
154.61888 -5.7543936 777.7019 4285956708
155.08112 -5.7259469 777.73279 4285629025
155.5096 -5.7541065 777.76093 4285103966
155.97505 -5.7285256 777.78857 4285037408
156.4007 -5.756577 777.80597 4285299039
156.86772 -5.7258053 777.82178 4284903765
157.28473 -5.7503715 777.82983 4284706648
157.75623 -5.7202206 777.85065 4284313945
158.17236 -5.7503533 777.86975 4283788627
158.64499 -5.7225761 777.8952 4283854424
159.06223 -5.7534161 777.92017 4284313177
159.53725 -5.725832 777.95404 4284510041
159.95494 -5.7542315 777.98303 4284444505
160.43379 -5.7239017 778.02008 4284377941
160.84718 -5.7545381 778.04407 4283917906
161.32852 -5.723042 778.07605 4283523914
161.73824 -5.7520194 778.0976 4283654730
162.21962 -5.7206974 778.1275 4283786316
162.63008 -5.7518311 778.15436 4283785554
163.11342 -5.7228389 778.19055 4283392337
163.52298 -5.7520771 778.21552 4283524430
164.00789 -5.7209044 778.25653 4284115282
164.41884 -5.7510819 778.28888 4284180049
164.90552 -5.7212358 778.33698 4283916878
165.31761 -5.7540145 778.37512 4283851599
165.80347 -5.7241106 778.41797 4283457613
166.21577 -5.752924 778.45581 4283128904
166.70198 -5.7210917 778.49976 4283129417
167.11417 -5.7525358 778.5365 4282997573
167.60242 -5.7210431 778.57501 4282865730
168.00893 -5.7506404 778.60052 4283061827
168.50064 -5.7190051 778.63873 4283061826
168.90396 -5.7513766 778.6651 4283193156
169.39754 -5.7200418 778.70984 4283128388
145.72211 -5.2904129 777.03796 4288129660
146.08522 -5.2283616 777.08246 4288326012
146.61572 -5.2928057 777.12262 4287799925
146.97745 -5.2299976 777.15997 4287470962
147.50775 -5.2913651 777.19684 4287864949
147.86711 -5.2266226 777.22302 4287930487
148.39473 -5.2884622 777.2442 4287602292
148.75128 -5.2269244 777.25653 4287733878
149.27911 -5.2911544 777.27582 4288193142
149.6355 -5.2274442 777.28894 4287735415
150.16356 -5.2882791 777.30609 4288129152
150.51936 -5.225996 777.31921 4289111938
151.04823 -5.2907877 777.33948 4288388733
151.4044 -5.2287545 777.35388 4288061815
151.93309 -5.2924013 777.37201 4288390261
152.28935 -5.2290277 777.38757 4286881131
152.81818 -5.2881074 777.40424 4286945388
153.1777 -5.2222166 777.42688 4286680939
153.70627 -5.2866859 777.45197 4285890917
154.06752 -5.2249064 777.48419 4286546281
154.59808 -5.2889271 777.51776 4286612327
154.95909 -5.2234039 777.5484 4285892710
155.48965 -5.2868004 777.58002 4286221933
155.84969 -5.226851 777.60742 4286549102
156.37782 -5.2911119 777.62683 4286482795
156.74011 -5.224196 777.6441 4285103453
157.2659 -5.2859282 777.65381 4284970842
157.62965 -5.2202396 777.67535 4284904797
158.15712 -5.2839198 777.69672 4284249176
158.51846 -5.2210536 777.72302 4284183899
159.05161 -5.2857876 777.75189 4285299553
159.40945 -5.2228346 777.78827 4285694567
159.94583 -5.2863665 777.8208 4285366891
160.30161 -5.2247281 777.85889 4285628775
160.83899 -5.2876587 777.88495 4284577890
161.19537 -5.2224998 777.91711 4284905055
161.72963 -5.2828164 777.93585 4284905054
162.08661 -5.2199178 777.96216 4284182617
162.61948 -5.2855787 777.98248 4283919962
162.97908 -5.2215943 778.01276 4284313183
163.50946 -5.2842565 778.02942 4283789918
163.86971 -5.2205596 778.06262 4284445531
164.40547 -5.2831631 778.08862 4284641627
164.76448 -5.2188869 778.13104 4284509272
165.30612 -5.2823153 778.1687 4284049494
165.66304 -5.2211318 778.20831 4284180567
166.20753 -5.2843213 778.25018 4283589970
166.56407 -5.2195559 778.29529 4283786576
167.11011 -5.2810001 778.3385 4283392844
167.46405 -5.2194071 778.3772 4283327306
168.00597 -5.2819858 778.40723 4283458636
168.35968 -5.2180796 778.44501 4283851596
168.90169 -5.2801452 778.47437 4283326281
169.25449 -5.2176137 778.5166 4282997831
145.24858 -4.8540163 776.85742 4288458875
145.65875 -4.8851228 776.8974 4288656768
146.14212 -4.8534651 776.94196 4288787332
146.55411 -4.8873348 776.97638 4288458365
147.0332 -4.8549123 777.0127 4288392056
147.44458 -4.8839188 777.04407 4288589181
147.92178 -4.8504949 777.07056 4288194940
148.32727 -4.8820643 777.08954 4287734646
148.80579 -4.8517222 777.10278 4287801724
149.20807 -4.8889394 777.12225 4287999098
149.69005 -4.8550558 777.13544 4288459392
150.09537 -4.8831601 777.1535 4287933305
150.57463 -4.8492355 777.16644 4288325756
150.98334 -4.8847098 777.18787 4289244805
151.45999 -4.8551316 777.20282 4289244033
151.8739 -4.8846564 777.22021 4288588924
152.34528 -4.8523326 777.23834 4288390520
152.76527 -4.8789949 777.25659 4287536501
153.23245 -4.8476853 777.28217 4286812270
153.65387 -4.8767486 777.30841 4286547561
154.12296 -4.8499765 777.3421 4286415977
154.54623 -4.8789744 777.37744 4287138159
155.01515 -4.849174 777.41077 4287270765
155.43427 -4.8794179 777.44104 4286879093
155.90614 -4.8510065 777.47052 4286813047
156.32901 -4.8800035 777.48859 4286813040
156.79613 -4.8500643 777.50702 4286221158
157.21642 -4.8763089 777.5166 4285563491
157.68159 -4.8476024 777.53833 4284906591
158.1077 -4.8742514 777.56067 4285300323
158.57098 -4.8468304 777.58844 4285366630
158.99533 -4.8771863 777.61658 4285761131
159.46451 -4.849896 777.65729 4286090867
159.88629 -4.8775349 777.68829 4286026606
160.36237 -4.8481669 777.73035 4286289264
160.77625 -4.880096 777.75403 4285828715
161.25703 -4.8473072 777.78693 4286024561
161.66562 -4.8753729 777.80133 4286220915
162.14526 -4.845058 777.82538 4285629288
162.5535 -4.8782921 777.83942 4285038693
163.03403 -4.8475056 777.86603 4284645221
163.4404 -4.8782668 777.87372 4285038950
163.9222 -4.8461342 777.90405 4285431905
164.33398 -4.87398 777.92432 4285299295
164.81584 -4.8435836 777.96747 4285167967
165.23343 -4.8743992 778.00128 4284904544
165.71245 -4.8464437 778.04388 4285100896
166.13495 -4.8763471 778.08594 4284641371
166.61276 -4.8459125 778.13617 4284378710
167.03535 -4.8749065 778.17834 4284116307
167.51469 -4.845294 778.21906 4284051027
167.93088 -4.8737879 778.24774 4283788366
168.41328 -4.8415251 778.28571 4283854158
168.82536 -4.8714466 778.31201 4283656266
169.30942 -4.8434939 778.35461 4283196746
169.72305 -4.8745241 778.38898 4283656016
145.6712 -4.415339 776.77637 4289444997
146.03275 -4.353653 776.81165 4289642119
146.56119 -4.4168639 776.84387 4289247620
146.92108 -4.3528171 776.87036 4288985472
147.44928 -4.4137225 776.89941 4289181827
147.80843 -4.3502069 776.92261 4288654974
148.33469 -4.4132481 776.94043 4288128631
148.6922 -4.3529468 776.95563 4287801981
149.21992 -4.4182086 776.97839 4287278717
149.57745 -4.3549714 776.99585 4287540863
150.10608 -4.4141889 777.0202 4287278197
150.4633 -4.3507509 777.03839 4287342967
150.99306 -4.4150243 777.06622 4289378694
151.35071 -4.3536186 777.0863 4289969033
151.87933 -4.4161344 777.10675 4288852358
152.23691 -4.3514371 777.12872 4288587901
152.76602 -4.4103923 777.14777 4287338865
153.12408 -4.3466463 777.17456 4286812012
153.65511 -4.4112697 777.20087 4287270762
154.01376 -4.3498578 777.23169 4287008108
154.54672 -4.4118733 777.26727 4287533167
154.90569 -4.3498511 777.29852 4287732598
155.43773 -4.4125719 777.32941 4287339645
155.79585 -4.3483014 777.35724 4288323199
156.32559 -4.4113741 777.37512 4288060285
156.68382 -4.3498979 777.39362 4287207794
157.21048 -4.4130073 777.40375 4286485099
157.57144 -4.3484526 777.42596 4285696615
158.09827 -4.4109926 777.44763 4286286956
158.4603 -4.346149 777.47565 4286417520
158.98926 -4.4097848 777.50494 4286483570
159.3522 -4.3468666 777.54742 4287142007
159.88435 -4.4111872 777.58032 4286946677
160.24464 -4.3491607 777.62195 4286620018
160.77783 -4.4124904 777.64795 4287209593
161.13866 -4.3479886 777.68146 4287602044
161.66743 -4.4089484 777.69519 4287075961
162.02791 -4.345305 777.71759 4287077497
162.55374 -4.409421 777.72577 4286749561
162.91609 -4.3450418 777.7486 4286421365
163.43851 -4.4107265 777.74896 4286225269
163.80107 -4.346385 777.77283 4286157423
164.33026 -4.4069347 777.78772 4286613609
164.69203 -4.342104 777.8252 4286088041
165.22876 -4.4061079 777.85858 4284842084
165.58987 -4.3449969 777.8999 4285432168
166.13144 -4.4094896 777.94635 4284972129
166.4929 -4.34516 777.99725 4284249179
167.03592 -4.406817 778.04523 4284315224
167.39386 -4.3433671 778.08514 4284379990
167.93211 -4.4054565 778.11707 4283920720
168.28923 -4.340816 778.15369 4283789903
168.82643 -4.4029102 778.1795 4284642386
169.18221 -4.3405709 778.21802 4284051282
169.71741 -4.4069571 778.25305 4284314707
145.20673 -3.979358 776.64307 4289115520
145.61264 -4.0102825 776.67877 4289182851
146.09766 -3.9768124 776.71454 4289511301
146.50146 -4.0127325 776.74274 4289446535
146.98546 -3.9787667 776.76898 4289512072
147.38878 -4.0096555 776.79425 4289116800
147.87238 -3.9755249 776.81915 4288853122
148.2737 -4.0096655 776.83588 4289114249
148.75627 -3.9787841 776.85321 4289116039
149.15865 -4.0163183 776.87616 4288394886
149.64165 -3.9805558 776.89392 4288395143
150.04448 -4.0097818 776.91937 4288000133
150.52841 -3.9754987 776.93719 4288198780
150.93152 -4.0114512 776.96655 4289644941
151.41663 -3.9797451 776.98975 4290365073
151.82484 -4.0102177 777.01117 4289182092
152.30421 -3.9737644 777.03741 4288063873
152.72195 -4.0016599 777.05939 4287010414
153.19298 -3.9736791 777.09058 4286287718
153.61147 -4.0050087 777.1192 4287271275
154.0835 -3.9742415 777.15137 4287469168
154.50015 -4.0048032 777.18646 4287733110
154.97545 -3.9756587 777.21991 4288193662
155.38419 -4.0068135 777.24768 4287603063
155.86499 -3.9711592 777.27441 4287930238
156.27719 -4.0033484 777.28741 4288587908
156.75002 -3.9764564 777.30365 4288061819
157.16388 -4.0062494 777.31158 4286683502
157.63483 -3.9748712 777.33282 4286223721
158.0546 -4.0039611 777.3537 4286550894
158.52408 -3.9727318 777.38373 4286419061
158.9424 -4.0007868 777.41345 4287207291
159.41913 -3.9716289 777.46167 4287799421
159.83485 -4.0036502 777.49487 4287998589
160.31468 -3.9745913 777.54071 4288655745
160.7256 -4.0065694 777.56659 4288131458
161.20685 -3.9731483 777.60193 4287211137
161.61502 -4.0030818 777.61456 4287276412
162.09386 -3.9711425 777.63593 4287606405
162.50011 -4.0013456 777.64069 4287540865
162.97896 -3.9702611 777.66016 4287147136
163.38284 -4.0057073 777.65619 4287476353
163.86226 -3.9729209 777.67603 4288522631
164.27237 -3.9991119 777.68732 4288390025
164.75227 -3.9685357 777.72333 4287076214
165.16977 -4.0006132 777.75476 4286222958
165.64838 -3.9705453 777.79865 4286748792
166.07283 -4.000874 777.84601 4286090353
166.55052 -3.9727225 777.90057 4285301351
166.978 -4.0033293 777.948 4285037664
167.45364 -3.972405 777.98926 4284709975
167.87703 -3.9974997 778.02075 4284643671
168.35201 -3.9646628 778.05499 4285037399
168.77264 -3.9927247 778.07764 4284905818
169.24504 -3.9675546 778.11163 4284118356
169.66519 -3.9999859 778.14545 4284381271
145.10655 -3.479563 776.55774 4289051011
145.63596 -3.5400097 776.59583 4288592511
145.99565 -3.4773383 776.62317 4288855936
146.52391 -3.5414004 776.65363 4289643654
146.88214 -3.4789901 776.67291 4290168202
147.40974 -3.538862 776.69977 4290035337
147.76875 -3.4763696 776.7226 4289508742
148.29497 -3.5406878 776.7406 4288984452
148.65277 -3.4801633 776.75787 4289840536
149.18077 -3.5430732 776.78223 4289843875
149.53864 -3.4797361 776.80292 4289844390
150.06833 -3.5412462 776.83197 4288465557
150.42615 -3.4781804 776.85425 4289450649
150.95683 -3.5402405 776.88782 4291093928
151.31602 -3.4786031 776.91638 4290303897
151.84572 -3.5391114 776.94287 4289444235
152.20485 -3.4736657 776.97302 4288128382
152.73485 -3.5356266 776.99738 4286879594
153.09412 -3.4753785 777.03046 4286222182
153.62558 -3.5385482 777.05939 4287533928
153.9841 -3.4741573 777.09052 4287470190
154.51633 -3.5364935 777.12274 4287798642
154.87526 -3.476145 777.15344 4287996790
155.40584 -3.5366454 777.17822 4288192630
155.76295 -3.4703326 777.20062 4287930744
156.29077 -3.5343618 777.21033 4288784254
156.6461 -3.4754949 777.22473 4288063354
157.17422 -3.5388494 777.23248 4286750319
157.53062 -3.4761114 777.25317 4286290796
158.06123 -3.5374506 777.27368 4287274611
158.41946 -3.4734015 777.30353 4287864699
158.95299 -3.5344787 777.33594 4287602811
159.31482 -3.4712634 777.38416 4288326272
159.84956 -3.5344274 777.41962 4289048453
160.21043 -3.473614 777.46405 4289378438
160.744 -3.5371656 777.49371 4289378697
161.10344 -3.4729207 777.52985 4287934592
161.63376 -3.5334837 777.54431 4287933050
161.99034 -3.4700696 777.56543 4287934335
162.51848 -3.5324407 777.56842 4288787072
162.87413 -3.4694936 777.58673 4288331141
163.40109 -3.5342791 777.58044 4288989851
163.75595 -3.4719825 777.59662 4289906585
164.28677 -3.5322416 777.60602 4288851594
164.64449 -3.4694872 777.63831 4287669886
165.18063 -3.5322738 777.67102 4287211647
165.54225 -3.468858 777.71338 4287670660
166.08081 -3.5330036 777.76562 4287144068
166.44696 -3.4706857 777.81854 4287339392
166.98686 -3.5353982 777.87122 4285698929
167.34863 -3.4708502 777.90991 4284975205
167.88344 -3.5306504 777.94495 4285433696
168.24298 -3.4644969 777.9751 4285564002
168.77521 -3.5284524 777.99561 4284842077
169.13226 -3.4666209 778.02362 4284644445
169.66631 -3.5326452 778.05627 4284318043
145.17776 -3.1038024 776.49634 4288987528
145.58359 -3.1371284 776.53143 4288790144
146.06737 -3.1051078 776.56152 4289315972
146.47121 -3.1396153 776.59052 4289709706
146.95383 -3.1038234 776.61151 4290692243
147.35747 -3.1340873 776.63873 4290954645
147.8412 -3.100487 776.66412 4289773705
148.24269 -3.1365089 776.68433 4290168211
148.72604 -3.1058259 776.70471 4291879091
149.12898 -3.1402602 776.73065 4292803272
149.61313 -3.1045122 776.7536 4293131735
150.01682 -3.1393747 776.78339 4290571704
150.50134 -3.1051893 776.80634 4290440374
150.90555 -3.1373832 776.84021 4291096494
151.39169 -3.101716 776.87061 4291354028
151.80476 -3.1319268 776.89813 4289511058
152.28146 -3.1003416 776.92993 4286947447
152.70337 -3.1289783 776.95673 4286680936
153.17241 -3.0997348 776.99384 4286551146
153.59454 -3.1307044 777.02515 4287206763
154.06343 -3.100235 777.05811 4287207792
154.47621 -3.1311913 777.08936 4287010667
154.95462 -3.1008196 777.12134 4287798131
155.35542 -3.1341624 777.14246 4287995002
155.84084 -3.0971296 777.16174 4287798392
156.24127 -3.1295209 777.16565 4287800186
156.72276 -3.098799 777.17584 4287604605
157.12576 -3.1337783 777.17999 4287013233
157.6058 -3.1020694 777.19879 4287210867
158.01497 -3.1324065 777.21637 4287669621
158.49469 -3.0982604 777.24768 4287801982
158.90302 -3.1300716 777.27979 4288064892
159.3911 -3.0971205 777.33374 4289115012
159.79684 -3.1303897 777.37073 4289378187
160.2886 -3.0982885 777.42188 4289245831
160.68999 -3.1331987 777.45398 4288853383
161.18307 -3.0978737 777.49463 4288590466
161.58131 -3.1301584 777.51135 4288065152
162.07045 -3.0953224 777.53192 4287933821
162.4659 -3.1292653 777.53455 4288525443
162.95348 -3.0947981 777.54858 4288331652
163.3465 -3.1300919 777.54059 4288532883
163.83417 -3.0960448 777.55255 4289253028
164.23392 -3.1288004 777.56061 4288265353
164.7224 -3.0957167 777.59204 4287542650
165.1302 -3.127696 777.6236 4288526470
165.61887 -3.0935242 777.66876 4289445780
166.03395 -3.1263721 777.71985 4289315740
166.52194 -3.0970147 777.77661 4288920220
166.93974 -3.1289861 777.82599 4288000907
167.42172 -3.0955677 777.86566 4287341694
167.83873 -3.1237776 777.89746 4286748790
168.31537 -3.0919781 777.92468 4285960812
168.73235 -3.1217799 777.94122 4285434212
169.20442 -3.0933976 777.96393 4285370473
169.62096 -3.125895 777.99213 4286159217
145.08546 -2.6029718 776.45306 4289118853
145.61488 -2.6666477 776.49158 4289052290
145.97412 -2.608779 776.51715 4289053062
146.50273 -2.6729379 776.54907 4289185424
146.86053 -2.6071179 776.56628 4290824343
147.38855 -2.6633713 776.59564 4290889105
147.7477 -2.6000125 776.61951 4289643149
148.2742 -2.6650505 776.64056 4291286687
148.63199 -2.6057944 776.65747 4293523651
149.16016 -2.6677828 776.68378 4294770660
149.51842 -2.6054633 776.7063 4294967269
150.04832 -2.6689682 776.73828 4292148181
150.40675 -2.6064885 776.76208 4292671941
150.93784 -2.6656048 776.79865 4292407239
151.29811 -2.6011612 776.83228 4292404148
151.8295 -2.6623065 776.86731 4290034838
152.18945 -2.601778 776.90234 4287076470
152.72119 -2.6643505 776.93616 4286680421
153.08147 -2.6013274 776.97473 4286614121
153.61452 -2.6639977 777.01215 4286942826
153.97348 -2.6022851 777.04498 4286877290
154.50505 -2.6623123 777.07532 4286615144
154.86375 -2.5998561 777.1037 4286943596
155.39294 -2.6633968 777.12134 4287206256
155.74831 -2.5993631 777.13593 4287798137
156.27405 -2.6597753 777.13477 4287144059
156.62764 -2.5989523 777.14154 4287866236
157.15492 -2.6626015 777.14392 4287734904
157.51004 -2.6015327 777.15979 4288128373
158.03998 -2.6630838 777.17694 4288062578
158.39799 -2.5993872 777.20575 4287539573
158.93178 -2.6609118 777.24042 4288197241
159.29422 -2.5977087 777.29114 4288788351
159.8295 -2.6591058 777.33105 4289377925
160.19145 -2.5972896 777.37958 4289312648
160.72638 -2.6598337 777.41614 4288197509
161.08633 -2.5969088 777.45508 4288394885
161.61792 -2.6603405 777.47589 4287869566
161.97417 -2.5975914 777.49573 4287737211
162.5025 -2.6580913 777.50006 4287934840
162.85713 -2.5948641 777.51355 4287544704
163.38391 -2.657465 777.50732 4288663700
163.73767 -2.5944636 777.51855 4290040987
164.26828 -2.657932 777.5282 4288791173
164.62512 -2.5969462 777.55566 4287544700
165.16147 -2.6581326 777.59076 4290104203
165.52132 -2.5932651 777.63306 4290762912
166.06242 -2.6557443 777.69019 4291746223
166.42456 -2.5954485 777.74109 4291812525
166.96562 -2.65819 777.79688 4290629548
167.32437 -2.5933549 777.8338 4289248659
167.86237 -2.6556034 777.8714 4287472508
168.2178 -2.5930686 777.89514 4285831795
168.75198 -2.6558535 777.91217 4285830505
169.1062 -2.5934594 777.9306 4286226293
169.64288 -2.6560278 777.95807 4287147136
145.16205 -2.2251401 776.42084 4289839754
145.56781 -2.2653394 776.45941 4289445510
146.05264 -2.2373831 776.49225 4289512062
146.4572 -2.2722666 776.52673 4289512066
146.94098 -2.2334285 776.55206 4289709709
147.34528 -2.2616167 776.58453 4290365583
147.83034 -2.2257679 776.61469 4289711245
148.23222 -2.2611108 776.63794 4291814318
148.71556 -2.2292678 776.6571 4294377425
149.11823 -2.263473 776.68304 4294705116
149.60225 -2.2292643 776.7049 4294115290
150.00491 -2.2656925 776.73273 4292804554
150.48964 -2.2313802 776.75525 4292671684
150.89342 -2.2626767 776.78699 4292801733
151.38043 -2.226445 776.82202 4292533178
151.79468 -2.2576206 776.85541 4290165913
152.27258 -2.2262721 776.8927 4287601525
152.69647 -2.2576296 776.92804 4287203949
153.16653 -2.2284272 776.97168 4286416741
153.59026 -2.2580185 777.01129 4286744681
154.06003 -2.2270086 777.0481 4286809958
154.47528 -2.2566893 777.07709 4287007081
154.95012 -2.2251096 777.10687 4287271274
155.35625 -2.2588067 777.12195 4287075440
155.83331 -2.2255414 777.13171 4287274107
156.23524 -2.2568209 777.12756 4287340921
156.71074 -2.2244613 777.12616 4288259456
157.11009 -2.2592676 777.12708 4288523137
157.59148 -2.2258451 777.13721 4288784247
157.99002 -2.2602456 777.1521 4288391545
158.47919 -2.2249668 777.18121 4287736185
158.88152 -2.2584765 777.21625 4287737206
159.3766 -2.2220306 777.27155 4288657278
159.78035 -2.2553883 777.3147 4289051782
160.27632 -2.2216485 777.36987 4289052045
160.67947 -2.2567222 777.41132 4288527496
161.17303 -2.2229664 777.45325 4288790670
161.57245 -2.2585523 777.47711 4287870332
162.06183 -2.2223787 777.49744 4287083125
162.4574 -2.2563455 777.50433 4287607673
162.94482 -2.2224624 777.51483 4287872644
163.33809 -2.2544444 777.51007 4288136329
163.82605 -2.2176058 777.52094 4289187227
164.22289 -2.2545555 777.53381 4289514896
164.71469 -2.2229121 777.56415 4289909391
165.11664 -2.256465 777.60052 4290567070
165.61246 -2.2182794 777.64758 4291289271
166.01866 -2.2520025 777.70483 4291225267
166.5166 -2.2186062 777.75946 4290960305
166.92436 -2.2518218 777.81195 4290305194
167.41641 -2.2176743 777.84851 4288725404
167.8231 -2.2527256 777.88202 4287475076
168.30859 -2.220691 777.90143 4286688130
168.71451 -2.252434 777.91357 4286752120
169.19424 -2.2181478 777.92542 4286820483
169.59904 -2.2513692 777.94543 4287478663
145.07791 -1.7295531 776.42108 4289969029
145.60841 -1.7959653 776.46515 4288658556
145.96831 -1.7378294 776.49365 4288857478
146.49792 -1.800547 776.53131 4289976211
146.85634 -1.7365879 776.55206 4289974675
147.38611 -1.7933058 776.58893 4290827150
147.74541 -1.728424 776.61591 4290236049
148.27304 -1.790096 776.64136 4292141992
148.63005 -1.7292551 776.65521 4294967241
149.15851 -1.7915018 776.68298 4294967254
149.5163 -1.7297204 776.70312 4294311875
150.04584 -1.7924666 776.73346 4294901696
150.40417 -1.7305982 776.75623 4293260984
150.93463 -1.7911754 776.79059 4292864188
151.29553 -1.7284758 776.82703 4292532914
151.82755 -1.7896161 776.86652 4290230424
152.18837 -1.7286247 776.90387 4288257917
152.72101 -1.7915715 776.94427 4287599471
153.0822 -1.730144 776.98541 4286614379
153.61577 -1.79171 777.02814 4286352747
153.97542 -1.728336 777.06262 4286941802
154.50633 -1.7883624 777.09033 4287268454
154.86452 -1.7248994 777.11688 4286811240
155.39281 -1.7884531 777.13007 4286747501
155.74696 -1.7281915 777.13745 4287011190
156.27171 -1.7890391 777.13226 4286947194
156.6237 -1.7257715 777.13019 4287735163
157.15059 -1.7870296 777.13184 4287866745
157.50441 -1.724651 777.14008 4287735924
158.03435 -1.7876301 777.15656 4288391802
158.39171 -1.7266824 777.18311 4288194940
158.92677 -1.7873302 777.2226 4287539574
159.28888 -1.7225637 777.27271 4287869562
159.82613 -1.7843463 777.32196 4288722816
160.18845 -1.7226163 777.3725 4288789638
160.72557 -1.7841567 777.41998 4288592776
161.08528 -1.7230041 777.45819 4289380234
161.61824 -1.7861737 777.48553 4288656507
161.974 -1.7226806 777.50317 4287279734
162.50322 -1.7847401 777.51221 4287937406
162.85678 -1.7232844 777.5202 4288659083
163.38477 -1.7834175 777.51929 4287936647
163.73807 -1.7191045 777.52887 4288921743
164.27046 -1.7830092 777.54688 4290038419
164.6273 -1.7228866 777.57416 4290171796
165.16553 -1.7838911 777.61786 4290762150
165.52565 -1.7188877 777.6618 4291943856
166.06888 -1.7793684 777.72754 4291287472
166.43039 -1.7169236 777.77643 4290369954
166.97269 -1.7794024 777.83679 4290500518
167.33037 -1.7180523 777.86932 4289250196
167.86877 -1.7817667 777.90857 4287605636
168.22229 -1.7210293 777.92358 4287211139
168.75562 -1.7836745 777.93671 4287670398
169.10727 -1.7199495 777.94397 4287935107
169.64192 -1.7798783 777.96167 4288133776
145.16246 -1.3555338 776.43164 4289315198
145.56975 -1.3946372 776.47815 4290234253
146.05544 -1.3634552 776.51593 4292470695
146.46179 -1.3974802 776.55933 4293328823
146.94655 -1.3604693 776.59064 4291814827
147.35298 -1.3924837 776.6322 4290104211
147.83797 -1.3554529 776.66406 4288662662
148.24103 -1.3875877 776.69189 4291157401
148.72272 -1.3534095 776.70355 4293982391
149.12584 -1.3877921 776.72986 4294639550
149.60837 -1.3542726 776.74377 4294899639
150.01044 -1.3889545 776.76886 4293849270
150.49385 -1.3541737 776.78571 4292797097
150.89716 -1.3882645 776.81445 4291878053
151.3842 -1.3533037 776.84973 4291218340
151.79898 -1.3863105 776.88654 4289836945
152.2773 -1.3555808 776.92572 4287996795
152.7021 -1.3853319 776.96655 4287337839
153.17259 -1.3540691 777.01086 4286091367
153.60039 -1.3845862 777.05438 4286287714
154.06697 -1.35463 777.09119 4287271020
154.48796 -1.3817941 777.11694 4287729522
154.95546 -1.3492632 777.14264 4287204713
155.37041 -1.3821316 777.15332 4286549352
155.83669 -1.3537968 777.15717 4286223215
156.24838 -1.3838474 777.1532 4286487153
156.71324 -1.3506836 777.14661 4286291568
157.11954 -1.382172 777.1499 4286619756
157.59392 -1.3482823 777.15674 4287145839
157.99959 -1.3826333 777.17554 4287801720
158.4828 -1.3518772 777.20544 4287473021
158.88983 -1.384493 777.24719 4287735930
159.38127 -1.3478124 777.30139 4288262780
159.79066 -1.3818496 777.35425 4287934843
160.28291 -1.3478705 777.41003 4288263558
160.6881 -1.3816317 777.4588 4288329603
161.18054 -1.347405 777.49792 4289181578
161.58012 -1.3824521 777.52277 4289115781
162.06885 -1.3474677 777.53973 4288985985
162.46446 -1.3829491 777.54785 4288528517
162.95081 -1.3482629 777.55219 4289512345
163.34515 -1.3801229 777.55145 4289182866
163.83313 -1.3442497 777.56274 4288787846
164.2317 -1.3825889 777.58337 4289708942
164.72432 -1.3489064 777.61761 4289907086
165.12849 -1.381255 777.66199 4289185428
165.62508 -1.3431065 777.71472 4288724884
166.03285 -1.3760194 777.77972 4289381784
166.53079 -1.341194 777.83374 4288988814
166.93623 -1.3757682 777.89075 4288726668
167.43068 -1.3417606 777.92316 4288396421
167.83089 -1.3792843 777.95819 4288131721
168.32106 -1.3464475 777.96729 4287342213
168.7164 -1.3832264 777.97711 4287867012
169.20421 -1.3454909 777.97845 4288065148
169.60016 -1.3764864 777.99115 4288264331
145.61873 -0.92325521 776.52979 4292007833
145.9807 -0.86371273 776.56677 4294967246
146.5118 -0.92442578 776.6142 4294967292
146.87201 -0.86133987 776.64276 4294967237
147.40326 -0.92219013 776.68805 4290037901
147.76286 -0.85907847 776.71594 4287806593
148.29103 -0.91824913 776.74408 4290566023
148.6465 -0.85514992 776.74933 4291618456
149.17476 -0.91597515 776.77539 4293258408
149.53111 -0.85452461 776.7876 4293255331
150.05997 -0.91760647 776.81421 4291743639
150.41733 -0.85679501 776.83191 4291875225
150.94751 -0.91696113 776.86444 4291351967
151.30809 -0.85521632 776.8999 4290496149
151.84132 -0.91772777 776.94421 4289507974
152.20222 -0.85705423 776.98279 4287929975
152.7361 -0.91830993 777.02887 4287600489
153.09744 -0.85563052 777.06989 4286223205
153.63113 -0.91724485 777.11462 4286683240
153.99101 -0.85622364 777.14807 4286944361
154.52081 -0.91585445 777.17163 4287007076
154.87798 -0.85061938 777.19226 4286744678
155.40567 -0.91422439 777.20227 4286810984
155.75897 -0.85561895 777.20526 4286943853
156.28467 -0.91613245 777.20416 4286880624
156.63628 -0.8519026 777.19995 4286356588
157.16435 -0.91224557 777.20703 4287012972
157.51817 -0.84939712 777.21558 4287078765
158.04959 -0.91201788 777.23828 4288259706
158.40721 -0.85203445 777.26678 4288127868
158.9438 -0.91337097 777.31232 4287405941
159.30527 -0.85003644 777.36053 4287538548
159.84448 -0.91140735 777.41833 4287210613
160.20641 -0.84874219 777.46765 4287998590
160.74452 -0.90986109 777.51947 4287540092
161.1033 -0.84787863 777.55261 4287670395
161.63586 -0.91001201 777.57739 4288128116
161.99066 -0.84882563 777.59082 4288656254
162.51968 -0.91145158 777.5979 4288396173
162.87169 -0.84903419 777.59888 4289708948
163.39978 -0.90830421 777.59924 4289182606
163.75342 -0.84514898 777.60913 4288722565
164.28734 -0.90986907 777.63464 4289773194
164.64526 -0.84874785 777.66663 4288724617
165.18523 -0.90800995 777.7179 4288200326
165.54663 -0.84318227 777.76837 4288133511
166.09204 -0.90506202 777.8421 4288724101
166.45348 -0.84286535 777.89191 4288002436
166.99675 -0.90308362 777.95581 4287807104
167.35359 -0.84224206 777.98517 4287609981
167.89127 -0.90754855 778.02228 4289379209
168.24356 -0.84679693 778.0296 4289246091
168.77556 -0.90836877 778.03802 4288326269
169.12616 -0.84477448 778.03864 4287082105
169.65863 -0.90392441 778.04755 4288001930
145.18066 -0.4851684 776.53619 4289840763
145.5889 -0.52194852 776.58948 4293193640
146.07695 -0.48692027 776.63867 4294967259
146.48465 -0.51831168 776.68988 4294967271
146.97191 -0.48394674 776.73206 4294178245
147.37918 -0.52198821 776.7796 4290301076
147.86487 -0.48569906 776.81317 4288267136
148.2682 -0.51658505 776.8418 4289775491
148.74863 -0.48112127 776.84491 4291220881
149.15096 -0.51476771 776.86737 4291746200
149.63167 -0.47949106 776.87128 4291415702
150.03256 -0.51519579 776.8913 4291151760
150.51509 -0.48114723 776.90234 4291086471
150.91762 -0.51460361 776.92841 4290956434
151.40472 -0.47945663 776.96307 4290296974
151.82018 -0.51320106 777.00439 4288785283
152.29965 -0.48166403 777.04755 4286945395
152.7254 -0.51239896 777.09387 4286943595
153.19644 -0.4806239 777.13922 4286485608
153.62746 -0.50978321 777.18414 4286485861
154.09128 -0.4802767 777.22058 4286551146
154.51735 -0.50814044 777.24255 4286154847
154.97789 -0.47619092 777.2627 4286154082
155.40166 -0.50558805 777.27173 4287007595
155.85838 -0.47916669 777.27271 4286877288
156.28064 -0.50949264 777.2738 4286879338
156.73615 -0.47796941 777.26764 4287010669
157.15335 -0.50542265 777.27673 4286945388
157.61871 -0.47265884 777.28558 4287207014
158.03574 -0.50620401 777.3114 4287404916
158.50969 -0.47722942 777.34491 4287404408
158.92831 -0.50873595 777.39301 4287339891
159.40926 -0.475124 777.44525 4287668076
159.83072 -0.50608242 777.50568 4287340403
160.31212 -0.47304255 777.55841 4287537785
160.72806 -0.50467354 777.60925 4287275639
161.20888 -0.47165757 777.64148 4287406458
161.61783 -0.50598788 777.6618 4287668342
162.09512 -0.47399536 777.67371 4288065144
162.49684 -0.50702864 777.67804 4287870337
162.97504 -0.47272721 777.67462 4287869320
163.37215 -0.50641334 777.67285 4287934337
163.8571 -0.47105414 777.68365 4288393854
164.25584 -0.50616699 777.70844 4289248143
164.74998 -0.47065669 777.74561 4288985745
165.15471 -0.50580114 777.79504 4288396425
165.65334 -0.46984756 777.85535 4288855687
166.06612 -0.50280845 777.927 4288525958
166.56143 -0.46725854 777.98462 4287476353
166.97511 -0.49974868 778.04639 4287345782
167.46243 -0.46745035 778.07898 4288264828
167.87329 -0.50325716 778.11481 4288460420
168.35214 -0.47075325 778.11932 4287999371
168.75684 -0.50281519 778.12744 4287868030
169.23415 -0.46775031 778.12415 4287869817
169.6387 -0.4988147 778.13159 4287607414
145.6469 -0.051502317 776.68567 4293653157
146.01057 0.014957292 776.73291 4294967221
146.54396 -0.041271359 776.79095 4294965697
146.90601 0.017307896 776.83057 4292928936
147.43903 -0.050311532 776.88336 4290235790
147.79865 0.01014119 776.91223 4288987269
148.32767 -0.047043331 776.94257 4289445508
148.68146 0.016894029 776.94067 4289773962
149.20889 -0.043839332 776.95935 4290561426
149.56293 0.017495995 776.96039 4290364557
150.09007 -0.045365259 776.97711 4290167941
150.44611 0.016391806 776.98755 4288987262
150.97527 -0.041823693 777.01447 4290758284
151.33575 0.019972185 777.04907 4290035338
151.86983 -0.044135675 777.09674 4288457090
152.23183 0.016315138 777.1413 4287207029
152.76657 -0.044594444 777.19183 4286549096
153.13078 0.016927687 777.23596 4286351973
153.66248 -0.04358853 777.28052 4286418021
154.02469 0.019396974 777.31506 4286220898
154.55157 -0.041741136 777.33429 4286089055
154.91028 0.0214283 777.35144 4286285409
155.43546 -0.039962981 777.36005 4286810210
155.78893 0.020883217 777.36182 4286482787
156.3158 -0.041298684 777.36804 4287009131
156.6682 0.020489845 777.36505 4287140971
157.19739 -0.039396718 777.37952 4286157157
157.55203 0.024214188 777.38983 4285829475
158.08522 -0.037645336 777.42041 4285698151
158.44351 0.022344677 777.45239 4287273074
158.98149 -0.038531739 777.5036 4286814316
159.34218 0.024046466 777.54834 4285961315
