# .PCD v0.7 - Point Cloud Data file format
VERSION 0.7
FIELDS x y z rgb
SIZE 4 4 4 4
TYPE F F F U
COUNT 1 1 1 1
WIDTH 1176
HEIGHT 1
VIEWPOINT 0 0 0 1 0 0 0
POINTS 1176
DATA ascii
29.794559 61.353077 605.13354 4278191378
30.141834 61.376995 605.17261 4278191633
30.475821 61.340538 605.20874 4278191632
30.823359 61.377682 605.25598 4278324754
31.156301 61.360512 605.28448 4279113755
31.503174 61.401516 605.31696 4279705120
31.834814 61.373749 605.31989 4279509025
32.182629 61.402622 605.34082 4279508767
32.513252 61.372238 605.32166 4279508767
32.860397 61.401573 605.32098 4279508767
33.191761 61.370354 605.30536 4279508767
33.540253 61.404179 605.3222 4279574303
33.873493 61.384998 605.33197 4279377437
34.223286 61.419678 605.3642 4279245082
34.556599 61.374371 605.37781 4278652690
34.90683 61.386364 605.41235 4278323464
35.238888 61.355789 605.41827 4278584583
35.587593 61.404568 605.44513 4278453250
35.919708 61.395138 605.44196 4278321924
36.268017 61.433464 605.45447 4278387460
36.600567 61.388367 605.45691 4278321667
36.94936 61.396774 605.48688 4278322179
37.281643 61.361965 605.50293 4278388230
37.629883 61.414295 605.51801 4278849294
37.958988 61.39954 605.49744 4279244823
38.308014 61.432133 605.51941 4279506972
38.639408 61.407398 605.5166 4279310617
38.991009 61.453876 605.55249 4279440663
39.322689 61.421158 605.55371 4278980110
39.674835 61.421101 605.59131 4278388229
40.007439 61.370953 605.62292 4278321666
40.359585 61.415569 605.65735 4278256386
40.688114 61.403904 605.64618 4278321666
41.039005 61.442593 605.65588 4278387201
41.366302 61.411766 605.62512 4278321666
41.717548 61.444363 605.63483 4278321922
44.002289 60.76828 598.97742 4280034329
44.202538 60.644329 598.05383 4281285165
44.502506 60.616776 597.46204 4282271038
44.791412 60.544838 597.02264 4281944896
45.111427 60.536663 596.66418 4281945154
45.413246 60.48204 596.38831 4281879873
45.742786 60.487488 596.16388 4281945666
46.055149 60.443302 596.01849 4282274118
46.397038 60.464886 595.96265 4282405450
46.718441 60.429451 595.93213 4282076999
47.065395 60.454865 595.93835 4281945157
47.387146 60.431515 595.92334 4282076485
47.739559 60.466278 596.00281 4282010950
48.066143 60.448128 596.04572 4281945923
48.418816 60.485275 596.12524 4282011458
48.743114 60.453743 596.13788 4281682491
49.088364 60.486095 596.12659 4281419066
49.407852 60.451836 596.08746 4281484086
49.754627 60.481224 596.08875 4281418035
50.071182 60.444572 596.01611 4281089072
50.414886 60.468346 595.96039 4281415217
52.113846 61.332333 604.18591 4278981398
52.484356 61.323376 604.38812 4278587153
52.816601 61.307655 604.4527 4278520334
53.191666 61.354435 604.69031 4278388748
53.531467 61.340767 604.85364 4278453772
53.899933 61.388561 605.0155 4278322701
54.239853 61.374645 605.17859 4278322445
54.595287 61.403931 605.19385 4278322446
54.926109 61.383057 605.25677 4278256910
55.275166 61.404598 605.18591 4278191631
55.593708 61.374252 605.13977 4278322703
55.938568 61.399364 605.01978 4278322703
56.251278 61.358459 604.89783 4278257166
56.600338 61.373898 604.83002 4278322702
56.912823 61.332798 604.70642 4278388237
103.43124 62.411892 614.37024 4279569925
104.07504 62.388031 614.08887 4279700740
104.72391 62.361534 613.84033 4280028163
105.09641 62.390072 613.80084 4280159746
105.39056 62.351189 613.69324 4280356353
105.74609 62.389957 613.63483 4280553475
106.06061 62.344719 613.56976 4280815875
106.40685 62.373669 613.46832 4281144323
106.71439 62.323376 613.3515 4281472003
107.07996 62.346615 613.27753 4281669891
107.37514 62.303444 613.17712 4282063106
107.73933 62.329731 613.09509 4282327299
108.03689 62.294106 613.00873 4283441670
108.39899 62.314674 612.91699 4284034830
108.69944 62.279739 612.84625 4285611289
109.065 62.303719 612.77612 4286532384
109.36776 62.26643 612.71851 4287191074
109.73634 62.293087 612.66437 4288569138
110.04181 62.260128 612.62396 4288505394
110.41637 62.288227 612.59991 4289551924
110.72599 62.253376 612.58563 4289093686
111.10612 62.286667 612.59039 4287515689
111.42142 62.259602 612.60925 4285217045
111.80847 62.292824 612.64856 4283183380
112.12577 62.264042 612.67725 4282195977
112.51611 62.301052 612.73132 4281408776
112.83153 62.276611 612.7486 4281144327
113.2215 62.311104 612.79541 4280685061
113.53636 62.28537 612.81195 4280028421
113.9185 62.321518 612.82019 4279569156
114.23281 62.290943 612.82233 4279240707
114.6123 62.322926 612.83496 4278912771
17.013809 61.024021 598.25543 4278650631
17.385752 61.013596 598.25818 4278454536
17.684618 61.025208 598.25787 4278389257
19.08503 62.179958 609.72455 4278191118
19.384949 62.179474 609.60608 4278191119
19.758476 62.146183 609.42224 4278322191
20.058216 62.146576 609.28882 4278191375
20.42557 62.102573 608.95618 4278256651
20.703552 62.039864 608.16565 4278190854
21.013227 61.821819 606.18604 4278321413
21.308781 61.80365 605.97791 4278190599
21.669573 61.745537 605.52966 4278191115
21.966002 61.750866 605.38306 4278191118
22.336948 61.720818 605.19946 4278191119
22.63204 61.717064 605.06238 4278191377
23.00873 61.702209 605.01312 4278191633
23.305801 61.707867 604.94531 4278191634
23.684116 61.694519 604.92993 4278191633
23.981688 61.700958 604.89233 4278191377
24.360725 61.688534 604.88324 4278191377
24.658155 61.6973 604.85181 4278191377
25.037611 61.685188 604.84424 4278191378
25.334616 61.693375 604.81146 4278257170
25.714575 61.681286 604.80896 4278191377
26.011648 61.690472 604.78479 4278191377
26.392065 61.679977 604.78931 4278191377
26.688877 61.690849 604.77698 4278191378
27.070629 61.680023 604.79254 4278191377
27.367558 61.691486 604.78992 4278191377
27.750093 61.683044 604.81433 4278191378
28.046774 61.695747 604.81403 4278191377
28.429096 61.685352 604.828 4278191378
28.726501 61.697609 604.83612 4278191378
29.108696 61.690758 604.85199 4278191377
29.406122 61.70723 604.87762 4278191378
29.789398 61.697056 604.89868 4278191377
30.086908 61.706375 604.93542 4278191378
30.470188 61.685844 604.9715 4278192144
30.768351 61.705227 605.01099 4278587926
31.149984 61.707821 605.03314 4279508256
31.449053 61.727222 605.05945 4279837218
31.82835 61.714474 605.0603 4279574819
32.128227 61.725536 605.07733 4279771426
32.507164 61.713844 605.06036 4279640097
32.80582 61.729141 605.06 4279640096
33.185307 61.716599 605.04944 4279705888
33.484554 61.729469 605.06049 4279574816
33.8657 61.723949 605.06537 4279509024
34.165298 61.743347 605.08679 4279508510
34.547585 61.715317 605.09399 4279179546
34.84668 61.699375 605.11542 4279047189
35.229351 61.695827 605.11829 4278718480
35.527569 61.741394 605.14343 4278455052
35.910213 61.739864 605.14844 4278520072
36.207897 61.747993 605.1618 4278191366
36.590874 61.71629 605.16504 4278191618
36.888424 61.709961 605.19165 4278190851
37.271549 61.709991 605.20532 4278323976
37.567795 61.749386 605.21643 4279047186
37.948982 61.744514 605.19232 4279441691
38.245449 61.757023 605.21063 4279703834
38.629452 61.744995 605.20801 4279243798
38.927837 61.760036 605.2428 4278849038
39.312336 61.741863 605.24066 4278650888
39.609718 61.744923 605.27454 4278387460
39.995876 61.720516 605.29834 4278190849
40.293282 61.734165 605.3316 4278191106
40.677086 61.737221 605.33014 4278190851
40.97097 61.755436 605.315 4278190851
41.354187 61.747974 605.29407 4278256386
41.649979 61.786957 605.30237 4278321922
42.032398 61.741463 605.2738 4278321922
42.326923 61.753395 605.27856 4278387972
43.883068 61.093353 598.73804 4280101407
44.152905 61.010712 597.86121 4281417013
44.446014 60.951279 597.31659 4282797120
44.780487 60.893604 596.84125 4282403908
45.055725 60.868786 596.52148 4282405188
45.41346 60.828541 596.23651 4282208836
45.688244 60.820644 596.04443 4282143556
46.056931 60.795563 595.90485 4282668619
46.342159 60.798767 595.84918 4282931022
46.720085 60.78495 595.82477 4282011979
47.010281 60.798126 595.83636 4282339915
47.391399 60.787395 595.84802 4282471500
47.686115 60.805679 595.92822 4282406731
48.072102 60.803185 595.9848 4282275147
48.365509 60.821484 596.05164 4282602570
48.748287 60.808857 596.06348 4282339399
49.034111 60.819698 596.04559 4282076739
49.406578 60.802013 595.96552 4281879359
49.685863 60.810825 595.85638 4281813565
50.046555 60.776596 595.61401 4281747262
50.319077 60.75919 595.44366 4282074685
50.69022 60.718971 595.29712 4281482040
50.946156 60.716103 594.96124 4280692523
51.346924 60.802723 595.13464 4279574043
52.423237 61.656734 604.2428 4278522131
52.790249 61.64732 604.23224 4278455052
53.121262 61.685516 604.45587 4278453772
53.514366 61.674431 604.49292 4278584844
53.814732 61.700577 604.63153 4278388238
54.220112 61.706032 604.79492 4278322703
54.510071 61.721554 604.82251 4278191631
54.907871 61.716755 604.89062 4278388239
55.190693 61.723656 604.8443 4278388239
55.578613 61.709377 604.80762 4278388239
55.857357 61.712265 604.71033 4278191631
56.239826 61.694305 604.60492 4278191630
56.516052 61.691105 604.492 4278453774
56.9007 61.671291 604.4082 4278453774
57.181095 61.676563 604.34674 4278191629
57.572353 61.665585 604.34265 4278322701
57.856094 61.673008 604.30627 4278322702
58.259491 61.671272 604.39288 4278322703
58.54248 61.683174 604.38983 4278191631
59.242077 61.707062 604.60504 4278519311
59.943283 61.731602 604.8338 4278257167
105.0325 62.753819 613.83301 4279634947
105.43724 62.734501 613.76923 4279700738
105.70182 62.740952 613.69476 4279897091
106.10767 62.721947 613.64899 4280028675
106.368 62.7299 613.54468 4280356355
106.75544 62.700157 613.3988 4280553474
107.02118 62.711132 613.32574 4280815875
107.41463 62.686863 613.21289 4280882179
107.6787 62.692009 613.133 4281406725
108.0749 62.666241 613.03473 4281604612
108.33592 62.67469 612.94025 4282326280
108.7348 62.656906 612.85724 4282787592
108.99831 62.665905 612.78088 4283969293
109.39784 62.64127 612.70123 4285086223
109.66192 62.648933 612.62891 4286006552
110.06384 62.629215 612.5603 4287385376
110.33198 62.640026 612.51367 4289289511
110.73907 62.621113 612.47113 4291847738
111.01159 62.633404 612.4502 4291390259
111.42551 62.617203 612.44354 4290532913
111.70395 62.634373 612.45532 4287908904
112.12357 62.622524 612.48053 4284823835
112.40865 62.640972 612.52563 4283116052
112.82944 62.63205 612.55396 4281344268
113.11562 62.655788 612.60693 4281341706
113.5368 62.646034 612.6369 4280423174
113.8165 62.660873 612.65533 4280094214
114.23524 62.646992 612.67603 4279569156
114.51505 62.668915 612.68787 4279306499
16.705147 61.301014 598.07202 4278387974
17.04331 61.330406 598.07959 4278454023
17.380486 61.302891 598.08923 4278454279
17.71423 61.332458 598.09259 4278651401
19.073118 62.462395 609.43628 4278191118
19.414087 62.480869 609.31818 4278191119
19.74629 62.429138 609.14807 4278256655
20.086687 62.446037 609.00519 4278256655
20.412851 62.3825 608.67358 4278190857
20.708414 62.28334 607.22131 4278190596
20.994085 62.082085 605.71497 4278256135
21.335453 62.089939 605.69086 4278190857
21.6583 62.036663 605.30475 4278191116
21.994656 62.05381 605.11853 4278191119
22.3256 62.011028 604.99792 4278191376
22.663778 62.024689 604.85907 4278191634
22.996601 61.991592 604.80615 4278191634
23.337746 62.016319 604.74304 4278191634
23.671734 61.98457 604.73022 4278191378
24.013937 62.008713 604.69104 4278256914
24.347977 61.977642 604.68274 4278191378
24.690592 62.004883 604.6496 4278191377
25.024227 61.974232 604.64197 4278191378
25.367054 61.999542 604.60724 4278191378
25.700609 61.970936 604.60455 4278191378
26.043968 61.999512 604.57928 4278257170
26.377762 61.96941 604.58435 4278256914
26.721695 61.996021 604.57031 4278191634
27.05584 61.968052 604.58569 4278191377
27.400347 61.99894 604.58154 4278191377
27.734722 61.972023 604.60376 4278191377
28.079487 62.001099 604.6015 4278191377
28.412989 61.972786 604.61279 4278191377
28.758625 62.004219 604.62122 4278191378
29.091982 61.979851 604.63477 4278191378
29.438709 62.014622 604.65936 4278191634
29.772194 61.982826 604.67755 4278191377
30.119072 62.005062 604.71454 4278191890
30.451981 61.969994 604.74634 4278192659
30.799007 62.012512 604.77893 4279113497
31.130527 61.995689 604.79297 4279705889
31.476974 62.029839 604.81519 4279836962
31.808025 61.996872 604.81232 4279706402
32.155571 62.023838 604.82733 4279771939
32.486328 61.996849 604.81146 4279771682
32.833023 62.03664 604.81494 4279640354
33.164448 62.008648 604.80902 4279706146
33.512299 62.033264 604.81995 4279640356
33.843834 62.005901 604.81592 4279509281
34.192234 62.042316 604.83289 4279509282
34.523968 62.006863 604.83081 4279443486
34.872791 62.02055 604.84723 4279508511
35.203907 61.974873 604.84229 4279310874
35.553204 62.017265 604.86877 4279179033
35.884586 62.013332 604.87347 4278981652
36.233955 62.05262 604.89423 4278784273
36.565144 62.000515 604.8927 4278652173
36.91394 62.011238 604.91937 4278258955
37.244709 61.993076 604.92438 4278718736
37.5928 62.05265 604.93579 4279375639
37.922363 62.028202 604.9115 4279244824
38.2705 62.051128 604.92847 4279111954
38.602528 62.0238 604.92548 4278782733
38.952541 62.063717 604.9599 4278519557
39.284485 62.030308 604.95227 4278387460
39.634243 62.047955 604.9845 4278452994
39.966335 62.000038 604.99542 4278387204
40.31691 62.030075 605.02716 4278387716
40.646767 62.015022 605.02203 4278519815
40.996136 62.061752 605.02209 4278519559
41.325321 62.025928 605.01788 4278322180
41.676514 62.051567 605.03546 4278452994
42.004269 62.025517 605.02112 4278322180
42.356197 62.057079 605.04163 4278585095
43.900009 61.37923 598.35919 4280954663
44.16404 61.269428 597.57172 4281352498
44.475632 61.254612 597.11102 4282403138
44.767445 61.1842 596.69415 4282404678
45.090176 61.177177 596.3761 4282208327
45.392567 61.121716 596.11621 4282012227
45.724392 61.131268 595.91797 4282144073
46.03669 61.090073 595.7854 4282604109
46.378384 61.109779 595.71985 4282604114
46.698738 61.07782 595.68396 4282407504
47.045563 61.108803 595.69647 4282341971
47.370544 61.079472 595.70929 4282670418
47.722115 61.114685 595.78992 4282736210
48.050228 61.095661 595.85822 4282276430
48.403084 61.135353 595.94147 4282078285
48.727852 61.11121 595.97638 4282537551
49.075314 61.141361 595.98004 4282406220
49.390537 61.103638 595.90741 4282078022
49.728298 61.118626 595.79248 4282011972
50.030849 61.066593 595.56586 4282077252
50.356773 61.071037 595.30615 4282338887
50.669155 61.033375 595.2135 4281813310
50.9841 61.031738 594.85474 4281482552
51.319225 61.01403 594.95508 4280035621
51.661186 61.234215 596.89557 4278785814
52.74353 61.901863 603.6178 4278454798
53.136837 61.969078 604.06055 4278191884
53.46505 61.942715 604.09711 4278453773
53.833641 61.992157 604.2663 4278388239
54.172695 61.98019 604.42389 4278257167
54.531193 62.015255 604.47595 4278191632
54.863068 61.992401 604.55621 4278257168
55.215267 62.018917 604.53436 4278191631
55.537201 61.988865 604.5105 4278322703
55.883568 62.013031 604.42035 4278322703
56.199249 61.974781 604.33063 4278257166
56.544281 61.992542 604.22723 4278388238
56.859604 61.95285 604.13721 4278387982
57.206997 61.982929 604.0575 4278256910
57.528912 61.943909 604.03705 4278387982
57.879341 61.972778 603.99347 4278453518
58.208363 61.944695 604.04974 4278388239
58.572273 61.982857 604.14978 4278453775
58.901211 61.96563 604.2066 4278322704
59.261307 62.002972 604.27094 4278191632
59.598007 61.992023 604.4082 4278257168
105.4509 63.066914 613.94159 4279307011
105.7399 63.111732 613.71075 4279307012
106.0863 63.051884 613.70306 4279569154
106.40617 63.091999 613.59546 4279765762
106.72853 63.013039 613.42334 4280093442
107.09786 63.042183 613.36517 4280356098
107.3907 63.002434 613.25861 4280618756
107.75666 63.023041 613.18359 4280816131
108.0522 62.991524 613.09131 4280947458
108.4135 63.011616 612.98724 4281210882
108.71174 62.975231 612.90741 4281603841
109.07426 62.998535 612.81622 4282457858
109.37202 62.955624 612.73285 4283442185
109.73231 62.978306 612.63062 4284099338
110.02877 62.943478 612.54382 4285281040
110.39442 62.967369 612.46967 4286397981
110.69444 62.92971 612.40393 4289880116
111.0648 62.95607 612.35742 4293420605
111.37112 62.922428 612.32611 4292900688
111.74823 62.952221 612.315 4291977537
112.06035 62.918797 612.31689 4288633652
112.44468 62.953533 612.34271 4286138153
112.76075 62.926842 612.36627 4284166924
113.15165 62.965237 612.42285 4282329610
113.46945 62.939526 612.45703 4281734920
113.85191 62.969833 612.46893 4280816645
114.16848 62.940929 612.48608 4280225285
114.54914 62.975056 612.49896 4279700740
114.86474 62.947971 612.49463 4279372291
17.008844 61.67638 598.07159 4278388230
17.380844 61.666122 598.08063 4278322694
17.679592 61.677574 598.08209 4278257415
19.066883 62.801567 609.13068 4278191118
19.366003 62.801815 609.00568 4278256655
19.739443 62.770416 608.82635 4278191119
20.038729 62.767506 608.66748 4278322190
20.401054 62.714745 608.27533 4278190600
20.660065 62.590595 606.88159 4278190340
20.989758 62.42857 605.48138 4278190599
21.289129 62.427017 605.43506 4278191115
21.652977 62.380192 605.0506 4278191118
21.947124 62.378899 604.87665 4278191376
22.320963 62.355785 604.75854 4278191377
22.615435 62.353458 604.63147 4278322706
22.992874 62.338093 604.58893 4278257170
23.289709 62.343819 604.53302 4278191634
23.66851 62.331959 604.52448 4278191378
23.965677 62.339348 604.48718 4278191379
24.344715 62.326633 604.4801 4278191378
24.641764 62.334152 604.44696 4278191378
25.021067 62.322105 604.43878 4278191378
25.317635 62.330338 604.40295 4278191378
25.697439 62.319534 604.39941 4278191377
25.993898 62.328506 604.37152 4278191378
26.374266 62.316685 604.37524 4278191378
26.670626 62.325375 604.3573 4278191378
27.052061 62.315739 604.37207 4278191377
27.348942 62.327343 604.36462 4278191378
27.730665 62.318344 604.38489 4278191378
28.027136 62.329632 604.38123 4278256913
28.408998 62.320187 604.39349 4278191377
28.706142 62.333866 604.40344 4278191378
29.088171 62.327221 604.41882 4278191378
29.385008 62.341751 604.44281 4278191634
29.768135 62.326694 604.46356 4278191633
30.065512 62.335209 604.49768 4278322706
30.447721 62.319782 604.52673 4278324756
30.74518 62.34206 604.54938 4279245853
31.12524 62.342598 604.5567 4279903268
31.424122 62.355396 604.57373 4279903522
31.802658 62.338573 604.56683 4279837987
32.102634 62.347927 604.57819 4279706658
32.481155 62.338982 604.56573 4279902497
32.780613 62.360806 604.57294 4279836447
33.159752 62.353237 604.57611 4279901985
33.459423 62.359032 604.58307 4279968291
33.837959 62.344624 604.57745 4279771427
34.136879 62.359642 604.58447 4279902753
34.516762 62.347713 604.57794 4279771169
34.81509 62.355873 604.58411 4279836960
35.195698 62.342487 604.57245 4279836192
35.494011 62.359447 604.59283 4279901983
35.876362 62.347507 604.59979 4279639071
36.174446 62.35313 604.61884 4279573533
36.556641 62.324821 604.61951 4279507483
36.853809 62.33749 604.63983 4279179288
37.23571 62.353073 604.64447 4279245082
37.532421 62.382019 604.65503 4279573275
37.913139 62.365471 604.63446 4279047703
38.210079 62.37606 604.6507 4278652688
38.593559 62.364365 604.65228 4278454791
38.891647 62.376732 604.68469 4278191109
39.275047 62.360046 604.67847 4278191620
39.571678 62.370483 604.70404 4278190852
39.956211 62.353523 604.7088 4278519814
40.252712 62.365147 604.73749 4278783500
40.636673 62.359306 604.73193 4278980368
40.930981 62.378777 604.72913 4278782218
41.316372 62.358585 604.73706 4278256388
41.603367 62.353718 604.63129 4278190338
41.984379 62.345894 604.58295 4278322181
42.277344 62.359085 604.58142 4278782218
42.638783 62.370636 604.2757 4278716681
43.829853 61.696529 597.96338 4281021225
44.151878 61.601505 597.25348 4281418040
44.41119 61.571075 596.84442 4282206269
44.763954 61.523918 596.48169 4282271039
45.030876 61.500381 596.18671 4282140736
45.391216 61.460762 595.92377 4282207300
45.666237 61.456516 595.74762 4282602055
46.035923 61.435497 595.617 4283258445
46.320942 61.440517 595.56171 4282997582
46.698231 61.425755 595.53558 4283456852
46.988331 61.438442 595.55243 4283654741
47.370186 61.430435 595.58276 4283522901
47.66494 61.447567 595.65594 4283196242
48.050304 61.444 595.71631 4282998612
48.345505 61.467678 595.80487 4282997842
48.72987 61.463726 595.84662 4283062354
49.018478 61.474689 595.86053 4282932048
49.3937 61.454174 595.79309 4282275916
49.67289 61.454346 595.69391 4282078279
50.035835 61.422195 595.48285 4282208839
50.296139 61.399178 595.16296 4282733898
50.667965 61.373905 595.03845 4282470217
50.917042 61.347046 594.60309 4282074171
51.293522 61.327381 594.49298 4280692266
51.820461 61.610107 597.12341 4279048474
52.688145 62.205894 603.07355 4278652174
53.054325 62.284355 603.69324 4278322701
53.44598 62.273438 603.7146 4278388237
53.747959 62.302673 603.8797 4278191631
54.152073 62.30809 604.03027 4278322704
54.442474 62.323803 604.06927 4278388240
54.841724 62.321037 604.15546 4278257168
55.127914 62.331951 604.15057 4278257168
55.517895 62.319775 604.13214 4278322703
55.798649 62.326435 604.07074 4278388238
56.183514 62.307465 603.99445 4278257166
56.462051 62.309044 603.9101 4278191630
56.845898 62.288849 603.82446 4278256910
57.125549 62.294117 603.75836 4278453519
57.514042 62.27977 603.72034 4278322447
57.796135 62.28754 603.68024 4278322447
58.193256 62.280224 603.71777 4278191631
58.477745 62.29311 603.71954 4278388240
58.881096 62.293903 603.82867 4278191632
59.171421 62.310097 603.87653 4278191632
59.863224 62.325809 604.01788 4278519312
107.01284 63.390965 613.26758 4279634435
107.42049 63.373211 613.2312 4279831554
107.6907 63.381405 613.19128 4280028419
108.09409 63.35733 613.13098 4280160259
108.35433 63.373421 613.03406 4280488195
108.75379 63.355412 612.95276 4280554243
109.01518 63.359287 612.86517 4281209861
109.41273 63.336102 612.77319 4281538822
109.67068 63.34293 612.66632 4282391817
110.06528 63.316116 612.55823 4282852872
110.3266 63.324703 612.47333 4284492045
110.72328 63.304329 612.375 4286921232
110.98694 63.313412 612.30548 4287646489
111.39026 63.291893 612.24347 4290664235
111.65892 63.302357 612.20453 4290799154
112.06981 63.283737 612.18176 4291652418
112.34545 63.297623 612.18036 4291850814
112.76199 63.285973 612.18799 4290336822
113.04414 63.302761 612.22034 4286005020
113.46606 63.292053 612.25751 4283181582
113.74619 63.310966 612.27612 4281735693
114.16857 63.296803 612.31891 4280620551
114.44987 63.315548 612.3382 4280225798
114.87006 63.308208 612.35284 4279766533
115.14769 63.327015 612.37207 4279503621
16.700968 61.957584 597.90991 4278453768
17.038992 61.98616 597.92151 4278585095
17.376472 61.964317 597.94037 4278453767
17.710115 61.988239 597.9455 4278388231
19.05484 63.085781 608.84552 4278191118
19.394222 63.099628 608.69141 4278191119
19.725756 63.054359 608.51587 4278191118
20.062937 63.068993 608.28741 4278256397
20.381428 62.973408 607.74683 4278256136
20.675499 62.853611 606.23706 4278190595
20.9795 62.714516 605.29755 4278190600
21.316845 62.723167 605.14685 4278190860
21.641844 62.669098 604.84491 4278191118
21.978415 62.685394 604.66144 4278191376
22.309448 62.645077 604.55231 4278191633
22.648281 62.662971 604.43799 4278257170
22.981436 62.628845 604.40143 4278257170
23.322876 62.652889 604.35059 4278191378
23.656929 62.622829 604.34479 4278191378
23.998924 62.649059 604.30658 4278191378
24.332764 62.617569 604.30084 4278191378
24.67518 62.642826 604.26599 4278191378
25.008623 62.612762 604.25861 4278191634
25.351133 62.64016 604.22125 4278191634
25.684498 62.611183 604.2171 4278191378
26.027288 62.638126 604.18652 4278191378
26.360764 62.606312 604.18878 4278191378
26.704109 62.63192 604.16687 4278191634
27.037937 62.605469 604.17957 4278191378
27.381866 62.636494 604.16772 4278191378
27.715736 62.607384 604.1839 4278191378
28.060179 62.636398 604.17883 4278191633
28.393452 62.60939 604.19104 4278191377
28.738953 62.641823 604.20081 4278191378
29.072138 62.617085 604.21509 4278191378
29.418425 62.648663 604.23895 4278191378
29.75153 62.610394 604.25854 4278256913
30.097748 62.634708 604.29126 4278192400
30.430204 62.606956 604.31274 4278850842
30.775755 62.652538 604.32819 4279968292
31.1066 62.630909 604.33063 4279904294
31.452585 62.65871 604.34204 4279969317
31.782722 62.624058 604.33246 4279838245
32.130604 62.654102 604.33978 4279903524
32.461121 62.627743 604.33044 4279508252
32.808441 62.659225 604.33929 4279047957
33.140007 62.627949 604.34705 4279375641
33.487553 62.660995 604.35242 4279770656
33.818478 62.634399 604.34772 4279771422
34.164909 62.662926 604.34961 4279771166
34.495342 62.6334 604.34296 4279771423
34.842541 62.663727 604.34357 4279771171
35.172421 62.627403 604.33008 4279705889
35.520641 62.656929 604.34503 4279574562
35.851654 62.632462 604.34961 4279509280
36.200951 62.661488 604.36853 4279509027
36.53183 62.615776 604.36566 4279574816
36.880257 62.646263 604.38293 4279508768
37.210815 62.632656 604.383 4279574303
37.558876 62.676807 604.39441 4279573790
37.888947 62.64521 604.37708 4279376666
38.236755 62.67173 604.39282 4279244566
38.56826 62.645954 604.39233 4278981139
38.917896 62.685524 604.4267 4278587407
39.248543 62.646973 604.41437 4278520845
39.597847 62.661671 604.43958 4278390285
39.928188 62.620407 604.43439 4278850322
40.277981 62.662643 604.46173 4279506711
40.608059 62.648247 604.4519 4279112466
40.957302 62.684254 604.46381 4278520073
41.28817 62.641251 604.47363 4278321668
41.638603 62.662716 604.49921 4278191106
41.968372 62.650078 604.4978 4278519559
42.318748 62.680721 604.53497 4278979342
43.819988 61.98563 597.6109 4281415470
44.124084 61.888355 597.0426 4281483830
44.432014 61.879791 596.62885 4282073401
44.738914 61.816841 596.3092 4281679159
45.062283 61.808159 595.99042 4281219632
45.365391 61.750156 595.7431 4281613877
45.698032 61.75914 595.56042 4282008632
46.01049 61.719208 595.43195 4282337855
46.352352 61.742527 595.37103 4282535233
46.672783 61.710495 595.34027 4282668357
47.019497 61.739021 595.36145 4282931274
47.346359 61.712708 595.39728 4282932042
47.698048 61.752731 595.48151 4283063887
48.026043 61.733482 595.55115 4282801998
48.380283 61.775799 595.65497 4282735443
48.707039 61.758545 595.7207 4282932306
49.056641 61.79113 595.74701 4282604371
49.371727 61.752995 595.68365 4282276428
49.71133 61.765667 595.58948 4282210379
50.014702 61.712784 595.38361 4282538574
50.338902 61.715267 595.10803 4283259217
50.651657 61.678818 594.99786 4282734412
50.966938 61.670994 594.62726 4282074174
51.292091 61.643974 594.6438 4280692782
51.753361 62.010212 597.90649 4279114780
52.630314 62.465706 602.60474 4278651922
53.076027 62.575394 603.36218 4278191885
53.401859 62.548119 603.37927 4278191373
53.769318 62.595001 603.539 4278191887
54.106079 62.581722 603.67639 4278257168
54.46336 62.616711 603.71808 4278191632
54.793617 62.593288 603.7854 4278322704
55.146999 62.622818 603.78125 4278191632
55.468075 62.589588 603.7511 4278191631
55.816624 62.614334 603.69122 4278257167
56.134361 62.57835 603.62604 4278256911
56.481369 62.599739 603.54889 4278322702
56.798466 62.562428 603.48285 4278322447
57.147923 62.58461 603.42816 4278387983
57.469215 62.556419 603.40668 4278322447
57.822727 62.5872 603.39587 4278257167
58.150539 62.561394 603.44458 4278191631
58.513584 62.600456 603.53314 4278191632
58.841785 62.577213 603.58594 4278191632
59.201488 62.61134 603.64221 4278322704
59.533012 62.592602 603.72913 4278519568
105.8506 63.978294 616.08881 4278781443
108.04619 63.675026 613.05566 4279831555
108.42162 63.702389 613.01886 4280028676
108.72533 63.666943 612.97449 4280159490
109.09496 63.698048 612.91595 4280422406
109.39117 63.655331 612.83331 4280881411
109.74956 63.67577 612.71503 4281079299
110.04136 63.638424 612.60779 4281472771
110.40279 63.657909 612.50677 4281802752
110.69495 63.617348 612.40009 4283113472
111.05588 63.64127 612.30042 4284231687
111.3528 63.60437 612.21948 4286199568
111.71947 63.62851 612.14929 4287645735
112.02175 63.591446 612.10004 4290013503
112.39535 63.619064 612.06866 4293750861
112.70325 63.585648 612.05017 4292901462
113.08482 63.617702 612.06085 4290203946
113.39852 63.588436 612.07434 4286135313
113.78249 63.622334 612.09784 4283313682
114.10346 63.596436 612.14429 4282128388
114.48997 63.63139 612.1817 4280948484
114.80762 63.598381 612.2038 4280356870
115.19402 63.64444 612.23346 4279897605
115.50413 63.613117 612.24689 4279634692
16.701374 62.31353 597.83356 4278519304
17.002483 62.324257 597.84155 4278519559
17.372543 62.315247 597.8606 4278519560
17.673443 62.326385 597.86359 4278322696
18.354317 63.387363 608.16058 4278322443
18.670399 63.44244 608.57953 4278191374
19.047117 63.418438 608.4939 4278191119
19.350006 63.431644 608.49988 4278191375
19.727983 63.417587 608.46552 4278191117
20.020142 63.397461 608.09741 4278321931
20.620872 63.142906 605.71997 4278190596
20.971292 63.049854 604.94684 4278321928
21.266634 63.043964 604.78723 4278191117
21.637577 63.017719 604.61078 4278191375
21.931324 63.012772 604.4397 4278191376
22.30579 62.991798 604.33899 4278191634
22.600866 62.991722 604.23553 4278191891
22.978559 62.977455 604.20526 4278191635
23.27556 62.983784 604.16077 4278191378
23.654453 62.972214 604.15802 4278191378
23.951721 62.979294 604.1225 4278191378
24.330425 62.96759 604.11719 4278191378
24.62742 62.974865 604.08313 4278191379
25.00625 62.963108 604.0741 4278191379
25.302929 62.970661 604.03577 4278191378
25.681915 62.959656 604.02759 4278191378
25.978256 62.967278 603.99384 4278191378
26.357918 62.955433 603.99182 4278191378
26.653961 62.96336 603.96594 4278191378
27.034643 62.953876 603.97528 4278191378
27.330975 62.964371 603.95966 4278191378
27.712063 62.954842 603.9726 4278191378
28.008272 62.965839 603.96924 4278191377
28.390108 62.956882 603.98419 4278191377
28.686733 62.971203 603.99738 4278191378
29.069078 62.966 604.0155 4278191634
29.365416 62.977654 604.0412 4278191634
29.748409 62.955189 604.06598 4278388494
30.045414 62.966953 604.09509 4278258451
30.426485 62.962288 604.11072 4279180062
30.7234 62.983192 604.11707 4280100903
31.101961 62.976528 604.11292 4279970089
31.400734 62.986191 604.11841 4280100903
31.778467 62.97179 604.10217 4279838248
32.077976 62.982487 604.10547 4280034340
32.456306 62.968838 604.09912 4279179543
32.755718 62.983109 604.11035 4278651916
33.135696 62.976036 604.12384 4278455819
33.434555 62.986897 604.12915 4279441174
33.813507 62.974586 604.12665 4279835673
34.112019 62.986988 604.12555 4279310870
34.491016 62.978394 604.11896 4279704346
34.788754 62.990303 604.11584 4280032798
35.167805 62.971443 604.0976 4279704606
35.465794 62.981094 604.10461 4279180316
35.8461 62.975513 604.10577 4279705118
36.143742 62.991142 604.12 4280099105
36.524628 62.971024 604.11487 4279967778
36.821655 62.981197 604.1236 4280033824
37.202686 62.978142 604.12408 4279967776
37.499874 62.996826 604.13367 4279902495
37.881046 62.985405 604.12329 4279770911
38.178207 62.999313 604.13605 4279639838
38.560715 62.990463 604.13904 4279704863
38.858459 62.996788 604.16943 4279573533
39.240574 62.963932 604.15796 4279376156
39.536274 62.968895 604.172 4279310874
39.918716 62.975731 604.16333 4279507998
40.214417 63.00882 604.18323 4279836188
40.597645 63.004894 604.16852 4279178775
40.891834 63.009216 604.16766 4278389516
41.275856 62.964161 604.15698 4278453762
41.561874 62.950893 604.04358 4278191107
41.943523 62.96117 604.00281 4278455306
42.234001 62.973602 603.97302 4279111439
42.59663 62.923416 603.63892 4278585609
43.604202 62.480152 598.88647 4280297501
43.813644 62.344849 597.74548 4281481775
44.126934 62.237099 596.90509 4281155128
44.383755 62.197044 596.47296 4281876022
44.739487 62.158058 596.14337 4281284911
45.005714 62.138351 595.84509 4281021484
45.366756 62.098949 595.59216 4281153835
45.641685 62.090633 595.41528 4281285423
46.010201 62.067909 595.27374 4281286190
46.293858 62.069965 595.20276 4281417779
46.669491 62.052956 595.16229 4281354035
46.959064 62.064899 595.17291 4281222453
47.341118 62.059792 595.20447 4281944888
47.635441 62.078236 595.28168 4282011200
48.021885 62.072285 595.34729 4282471751
48.31852 62.096481 595.46954 4282799433
48.710251 62.102692 595.58911 4282996044
49.000446 62.125862 595.63763 4282997325
49.380386 62.113388 595.61853 4282997583
49.661137 62.108704 595.54724 4282998350
50.02523 62.073963 595.35004 4283063891
50.287567 62.053776 595.0575 4283523924
50.652706 62.029453 594.87231 4283127889
50.908066 62.001648 594.495 4281943356
51.229713 61.987503 594.44489 4280692269
51.801857 62.46851 598.98291 4279245084
52.614864 62.79781 602.23694 4278717456
52.990128 62.883038 602.96362 4278388239
53.383457 62.878704 603.00305 4278191630
53.68314 62.906509 603.15417 4278257167
54.087292 62.910442 603.30103 4278191632
54.376797 62.925571 603.33881 4278191633
54.774204 62.922226 603.40619 4278454033
55.059189 62.933331 603.3941 4278257168
55.447903 62.918617 603.36505 4278191632
55.7286 62.923229 603.30597 4278191375
56.113964 62.906162 603.24152 4278191375
56.392372 62.909668 603.16229 4278191631
56.778004 62.892063 603.09857 4278322703
57.058239 62.898872 603.04425 4278519311
57.448994 62.886246 603.02893 4278256911
57.734184 62.897449 603.03052 4278191631
58.13221 62.892735 603.08771 4278322704
58.418365 62.905899 603.09991 4278191632
58.821419 62.907379 603.20776 4278257168
59.110653 62.917885 603.24994 4278322704
59.800766 62.937347 603.37946 4278453776
62.796715 63.233345 606.16516 4278322702
102.07603 61.417549 588.62915 4278847236
108.36333 64.067421 613.07605 4279569155
108.76823 64.046928 613.02014 4279700482
109.03484 64.047844 612.96539 4279962627
109.4385 64.033981 612.9021 4280159747
109.69458 64.044441 612.789 4280356867
110.08749 64.016785 612.67023 4280488963
110.3461 64.022751 612.57062 4281144324
110.73788 63.998871 612.44427 4281145860
110.9944 64.005119 612.33533 4282195207
111.38846 63.978863 612.22174 4282984200
111.64684 63.983822 612.12799 4285017359
112.04678 63.961956 612.04578 4287052821
112.31185 63.973801 611.98901 4288893986
112.71806 63.954662 611.94226 4291319849
112.99011 63.965958 611.92419 4290862889
113.40441 63.951969 611.91876 4291057968
113.68266 63.966217 611.93304 4288302117
114.1066 63.951199 611.97711 4284953109
114.3894 63.970623 612.0144 4282129933
114.81146 63.956573 612.04584 4280228101
115.09206 63.973774 612.07269 4280291335
115.51153 63.974037 612.0954 4279897349
115.79261 63.988605 612.11932 4279503364
16.361744 62.633381 597.66229 4278387975
16.694456 62.602962 597.67468 4278519047
17.037054 62.650188 597.84955 4278519046
17.374239 62.650394 597.9776 4278585097
18.066019 62.722218 598.69629 4278322444
18.708519 63.773838 608.58179 4278191119
19.041323 63.723389 608.41162 4278191119
19.380901 63.738792 608.26611 4278191119
19.711487 63.691051 608.06348 4278191116
20.033638 63.679386 607.41223 4278190858
20.333338 63.511929 606.30267 4278190343
20.651272 63.451344 605.50159 4278190597
20.965662 63.347034 604.89484 4278190857
21.301128 63.363453 604.68567 4278191118
21.626442 63.307743 604.40814 4278191119
21.963438 63.321445 604.24139 4278191377
22.294811 63.282959 604.15027 4278191634
22.634298 63.30344 604.05786 4278191635
22.967804 63.268795 604.03558 4278191635
23.309401 63.292362 603.99457 4278191378
23.643496 63.263321 603.995 4278191378
23.985394 63.290871 603.9585 4278191378
24.319048 63.260281 603.95416 4278191378
24.661261 63.286503 603.91833 4278191378
24.994484 63.254917 603.91003 4278191378
25.336693 63.280148 603.87012 4278191378
25.669617 63.251354 603.86084 4278191378
26.011963 63.279522 603.82373 4278191378
26.344917 63.247021 603.81976 4278191378
26.687746 63.271702 603.78918 4278191378
27.020988 63.244595 603.79474 4278257170
27.364347 63.274181 603.77399 4278191378
27.697559 63.244522 603.78143 4278191378
28.041876 63.273487 603.77771 4278191378
28.375032 63.246437 603.79254 4278191378
28.720518 63.281567 603.80579 4278191378
29.053686 63.25592 603.82306 4278191378
29.39949 63.279282 603.85022 4278191635
29.73238 63.238136 603.87531 4278191890
30.078125 63.274349 603.90149 4278391061
30.409527 63.255146 603.90894 4279443744
30.754059 63.292976 603.91089 4280298026
31.084347 63.264431 603.90356 4279970346
31.430172 63.291988 603.90442 4280035625
31.759506 63.259892 603.88416 4279904295
32.106812 63.288788 603.88318 4280034085
32.437366 63.256508 603.87976 4279112982
32.784584 63.287075 603.88953 4278783238
33.116867 63.25996 603.90393 4278651656
33.463573 63.288528 603.9079 4279046414
33.795601 63.258305 603.91028 4279243540
34.1409 63.290997 603.90576 4279177487
34.471764 63.261181 603.9032 4279178258
34.817482 63.291344 603.89526 4279112721
35.146961 63.262016 603.8797 4279178261
35.494186 63.291679 603.87805 4279112726
35.823307 63.261715 603.87659 4279178775
36.171932 63.290291 603.88501 4279442200
36.502083 63.257095 603.87854 4279771164
36.84951 63.290897 603.88196 4279836704
37.180119 63.266647 603.883 4279705629
37.527386 63.297573 603.89105 4279771422
37.858002 63.265991 603.88574 4279640350
38.205223 63.297932 603.89569 4279640611
38.535679 63.268349 603.89587 4279575073
38.884556 63.292618 603.92584 4279443235
39.214428 63.247082 603.91022 4279574561
39.562233 63.284672 603.92377 4279574561
39.892113 63.267532 603.91162 4279574816
40.240803 63.312153 603.92993 4279705376
40.570667 63.2868 603.91345 4279376668
40.918327 63.307064 603.90997 4278916373
41.2467 63.244232 603.87872 4278718225
41.594765 63.257568 603.88641 4278521613
41.924076 63.260639 603.86707 4278850065
42.270615 63.290672 603.87671 4279112212
43.595825 62.797234 598.909 4280626465
43.804451 62.636574 597.41205 4281744178
44.097382 62.519196 596.67822 4281352499
44.407089 62.506638 596.2832 4281744690
44.717888 62.444729 596.0141 4281678385
45.041145 62.444843 595.70221 4281678381
45.346256 62.39846 595.46973 4281810225
45.678547 62.407887 595.29584 4281876274
45.989975 62.359913 595.15753 4281548338
46.330303 62.378292 595.08087 4281352241
46.648533 62.345837 595.03583 4281286449
46.994179 62.375488 595.03784 4281221167
47.317776 62.349239 595.05457 4281548857
47.66964 62.386177 595.12396 4281483573
47.994907 62.361706 595.16718 4281680697
48.351757 62.403389 595.30054 4281878327
48.686649 62.396412 595.44897 4282141244
49.037037 62.434196 595.5105 4282273343
49.361679 62.405109 595.53674 4282339907
49.702988 62.423241 595.4798 4282669384
50.008087 62.367096 595.28314 4282736461
50.334991 62.376091 595.05756 4283523159
50.642414 62.334442 594.87457 4282537802
50.958488 62.325691 594.52277 4281417527
51.285118 62.301979 594.56653 4280363817
51.973999 62.878338 599.77234 4279048218
52.563549 63.063713 601.83752 4278585874
53.007484 63.169407 602.57574 4278257167
53.338036 63.15115 602.64978 4278257167
53.705322 63.199936 602.81378 4278322704
54.042313 63.183384 602.95795 4278257169
54.400238 63.217026 603.01239 4278191890
54.728233 63.194637 603.05939 4278322961
55.080074 63.226017 603.0437 4278257168
55.399773 63.18943 603.00256 4278191632
55.74704 63.211842 602.93304 4278191631
56.063419 63.175125 602.8584 4278191631
56.408737 63.196365 602.76678 4278256911
56.725498 63.160118 602.70142 4278257168
57.074509 63.181808 602.6474 4278191632
57.396317 63.153946 602.63599 4278191375
57.75174 63.186367 602.64899 4278256911
58.080471 63.162003 602.7113 4278256912
58.442165 63.200047 602.78705 4278256912
58.776112 63.184372 602.90332 4278257168
59.142124 63.2225 603.01807 4278191632
59.472702 63.206181 603.09717 4278322705
59.834167 63.243786 603.16614 4278453777
60.16341 63.221684 603.23743 4278453776
102.27625 61.663326 587.80688 4278584322
102.93555 61.624252 587.78766 4279109638
109.39067 64.344597 612.82587 4279831298
109.76228 64.3703 612.77411 4279962885
110.06364 64.336632 612.71344 4280159492
110.4298 64.360588 612.64142 4280356867
110.71905 64.318092 612.52155 4280815617
111.07497 64.338623 612.39484 4281144577
111.36458 64.295761 612.27637 4281800196
111.72177 64.315956 612.15393 4282589443
112.01292 64.274582 612.04639 4283769859
112.37525 64.298973 611.95276 4285084943
112.67272 64.263168 611.87994 4287119633
113.04312 64.290215 611.82916 4290401067
113.34821 64.256226 611.79877 4291915855
113.72653 64.283234 611.79144 4291516984
114.0434 64.252304 611.82312 4287845423
114.4313 64.286331 611.86298 4285151773
114.74942 64.255203 611.8999 4282588672
115.13922 64.292847 611.94806 4280817923
115.45531 64.265465 611.97626 4280422406
115.84115 64.307533 612.00873 4279831812
116.16225 64.279663 612.03613 4279437571
16.021736 62.936966 597.48761 4278453767
16.32233 62.956066 597.46381 4278453767
16.691942 62.948509 597.49451 4278453766
16.992683 62.958462 597.49286 4278387974
18.358669 64.084694 608.30237 4278191117
18.660921 64.096497 608.29175 4278256911
19.036644 64.067055 608.15485 4278191119
19.337006 64.071388 608.08246 4278191375
19.711 64.043243 607.91907 4278191116
19.988861 63.982449 607.13873 4278190600
20.302124 63.761272 605.21277 4278190342
20.599382 63.74971 605.07666 4278190343
20.95933 63.690758 604.59924 4278190859
21.253782 63.686749 604.41315 4278256654
21.623272 63.655792 604.2019 4278191376
21.917271 63.65036 604.04553 4278191377
22.292156 63.631763 603.9621 4278191378
22.587788 63.633602 603.87994 4278322707
22.965788 63.619492 603.86121 4278191635
23.262444 63.625854 603.82471 4278191635
23.641754 63.614929 603.82538 4278191634
23.938396 63.62318 603.79175 4278191378
24.317387 63.611782 603.78564 4278191634
24.613743 63.618725 603.74988 4278387986
24.992661 63.606487 603.73816 4278191378
25.288511 63.613407 603.69714 4278191378
25.667511 63.601547 603.68225 4278256914
25.962692 63.608761 603.64221 4278191378
26.342499 63.595966 603.6322 4278191634
26.637617 63.603493 603.5993 4278191634
27.018131 63.593384 603.60022 4278519315
27.313726 63.602871 603.57812 4278191378
27.694492 63.592587 603.58411 4278322451
27.990612 63.60379 603.58466 4278322451
28.372467 63.596699 603.60321 4278191378
28.668728 63.612164 603.62012 4278256914
29.051077 63.604145 603.64221 4278191378
29.347345 63.611694 603.6712 4278191379
29.729889 63.589119 603.6991 4278192657
30.026621 63.607609 603.72034 4278851355
30.406168 63.60936 603.72101 4279969576
30.703201 63.624062 603.71838 4280363818
31.080988 63.611282 603.70544 4279904553
31.379293 63.62035 603.70105 4280101418
31.755987 63.607788 603.67358 4279773226
32.055202 63.617855 603.66968 4279706149
32.433167 63.601425 603.66644 4278654227
32.732395 63.611916 603.67352 4278456334
33.111889 63.606846 603.68646 4279047695
33.410675 63.617603 603.69122 4278324749
33.789543 63.605347 603.69647 4278652427
34.08807 63.6194 603.69385 4278652431
34.466946 63.60788 603.69336 4278718989
34.764568 63.616875 603.68726 4278389769
35.14312 63.607731 603.672 4278981136
35.440701 63.619537 603.66632 4279637784
35.819813 63.606297 603.65955 4278850064
36.116997 63.616966 603.66339 4278653454
36.497231 63.603527 603.65118 4279638806
36.793026 63.616589 603.64825 4279638296
37.174084 63.61084 603.64728 4279375637
37.470325 63.622189 603.65161 4278917141
37.851467 63.604633 603.64996 4279376923
38.147507 63.615395 603.6535 4279771168
38.528782 63.61076 603.65411 4279836706
38.825985 63.624393 603.67877 4280034082
39.206581 63.606087 603.66248 4279968034
39.502365 63.617771 603.66852 4280099617
39.884129 63.608894 603.65521 4279902497
40.179131 63.629009 603.66229 4279771681
40.56139 63.624565 603.64441 4279836706
40.853432 63.624886 603.60907 4279705120
41.233875 63.575184 603.55774 4279507999
41.517857 63.562096 603.42523 4279573275
41.896751 63.572632 603.3407 4279441693
42.184307 63.57832 603.27167 4279244053
42.525539 63.488884 602.58582 4278520073
43.496037 63.216587 599.7934 4279179279
43.767307 62.948296 597.11401 4281811506
44.096401 62.863899 596.49481 4281418807
44.361195 62.831158 596.16071 4281089841
44.727833 62.802784 595.9762 4281548079
44.995312 62.782303 595.69049 4281613615
45.358471 62.755001 595.46667 4282138675
45.634666 62.754784 595.30896 4282008373
46.002964 62.725925 595.15826 4281549110
46.283848 62.723949 595.06592 4281746744
46.657818 62.705215 594.99359 4282009405
46.94289 62.712437 594.96204 4282074684
47.320972 62.700352 594.9325 4281746749
47.611076 62.714622 594.97021 4282008379
47.99194 62.702095 594.96692 4281352243
48.287144 62.724991 595.07751 4281221169
48.685421 62.73703 595.27185 4281418542
48.974834 62.758987 595.31927 4280958512
49.36837 62.761978 595.46075 4280893739
49.652634 62.7691 595.43872 4281289016
50.016514 62.730019 595.23444 4282210120
50.289127 62.7229 595.07581 4283588176
50.650803 62.692665 594.84973 4282405194
50.907864 62.668335 594.50397 4281351733
51.113777 62.672176 594.58624 4280363559
52.08313 63.349804 600.93451 4278718999
52.585327 63.409714 601.62183 4279044109
52.915977 63.470608 602.12317 4278191376
53.317013 63.475201 602.24677 4278322705
53.620361 63.509129 602.44757 4278191890
54.025188 63.513515 602.60077 4278388498
54.315327 63.530529 602.65338 4278388498
54.710262 63.524727 602.69501 4278388242
54.993725 63.535194 602.67426 4278453777
55.381474 63.519989 602.63605 4278453776
55.660633 63.523239 602.56525 4278191375
56.04472 63.504787 602.49042 4278388240
56.322048 63.507137 602.40179 4278256912
56.70742 63.490486 602.34137 4278256912
56.98806 63.496769 602.29144 4278191632
57.379192 63.486389 602.28888 4278191632
57.665703 63.499245 602.30487 4278191376
58.064316 63.495548 602.3764 4278191376
58.356689 63.51527 602.45642 4278322705
58.761436 63.519592 602.58484 4278257169
59.058197 63.545315 602.71252 4278257169
59.466526 63.551323 602.86859 4278322705
59.757801 63.570374 602.94537 4278519569
60.171688 63.581718 603.15106 4278388497
60.465775 63.602745 603.24243 4278191888
61.189873 63.653755 603.7016 4278322959
61.943176 63.731224 604.44336 4278322703
62.67067 63.782593 604.92236 4278257166
63.374191 63.807453 605.14569 4278322702
64.058968 63.814133 605.18909 4278191630
64.746559 63.82098 605.26123 4278650383
65.439171 63.837742 605.37286 4278519311
66.123894 63.841011 605.40485 4278519310
109.69681 64.731613 612.79279 4279569155
110.10014 64.712097 612.72882 4279634691
110.36592 64.720001 612.6698 4279962627
110.76773 64.701691 612.59424 4280159747
111.02113 64.706543 612.47168 4280487684
111.41185 64.677864 612.33862 4280553987
111.66376 64.68222 612.2099 4281275398
112.05323 64.653221 612.07056 4281539333
112.3086 64.656654 611.96027 4282589449
112.70256 64.633484 611.84875 4283772171
112.96319 64.64402 611.76892 4286266133
113.366 64.62397 611.70636 4288628510
113.63625 64.633339 611.67773 4288829476
114.0529 64.617775 611.68719 4290141493
114.33311 64.631172 611.71167 4290926387
114.75619 64.615593 611.75275 4287576358
115.04127 64.633018 611.80017 4283640593
115.46838 64.63089 611.86157 4280294148
115.75124 64.650772 611.89764 4280225798
116.17522 64.644455 611.93219 4279700739
116.45156 64.662132 611.94397 4279372292
16.01985 63.245342 597.49835 4278519560
16.356485 63.28183 597.47699 4278519303
16.689472 63.252773 597.49066 4278453767
17.026245 63.280518 597.46722 4278454024
18.354101 64.389969 608.23022 4278191118
18.69589 64.413689 608.1662 4278191376
19.029057 64.364349 608.01379 4278191376
19.370453 64.38662 607.93359 4278191119
19.700811 64.328682 607.70184 4278191115
20.005213 64.251534 606.51984 4278190598
20.282112 64.017921 604.71851 4278255879
20.62512 64.045837 604.73517 4278190856
20.946501 63.966 604.34528 4278191116
21.282516 63.988918 604.14966 4278191119
21.612976 63.947536 604.02509 4278191377
21.950308 63.962257 603.87311 4278191378
22.282146 63.924889 603.80182 4278191378
22.622089 63.945316 603.72516 4278191634
22.955671 63.91214 603.70953 4278191634
23.297281 63.937489 603.67377 4278191635
23.631279 63.907635 603.67474 4278191635
23.973085 63.935326 603.64124 4278191378
24.306471 63.90527 603.63544 4278191378
24.648512 63.93092 603.59894 4278191378
24.981409 63.899807 603.5874 4278191378
25.323349 63.926529 603.54578 4278191378
25.655792 63.894543 603.53015 4278322450
25.997812 63.919621 603.48816 4278191378
26.330189 63.887329 603.47614 4278191634
26.672638 63.913792 603.44031 4278191378
27.005255 63.885731 603.43756 4278322450
27.348272 63.91404 603.41138 4278322450
27.680908 63.883484 603.41266 4278322451
28.025236 63.913761 603.41187 4278191635
28.358295 63.888454 603.42773 4278191378
