# .PCD v0.7 - Point Cloud Data file format
VERSION 0.7
FIELDS x y z rgb
SIZE 4 4 4 4
TYPE F F F U
COUNT 1 1 1 1
WIDTH 1156
HEIGHT 1
VIEWPOINT 0 0 0 1 0 0 0
POINTS 1156
DATA ascii
-10.718694 70.645699 633.67664 4278980363
-10.370231 70.678787 633.64465 4279045643
-10.006919 70.639198 633.5993 4279111180
-9.6580362 70.673065 633.56329 4279110923
-9.2950983 70.629692 633.52173 4279242253
-8.9462128 70.657059 633.49249 4279243021
-8.5837641 70.614296 633.461 4279440914
-8.2354622 70.651299 633.44025 4279638549
-7.8728824 70.615807 633.42389 4279441427
-7.5256543 70.653702 633.42279 4279571988
-7.1624579 70.616608 633.42383 4279900439
-6.8163195 70.653503 633.43176 4279834388
-6.4525628 70.6166 633.44159 4279834643
-6.1057529 70.657143 633.45807 4279900947
-5.7429066 70.622971 633.4729 4279835412
-5.3949037 70.660683 633.4917 4279966745
-5.0327535 70.624084 633.51392 4279901208
-4.6844301 70.662262 633.55048 4279901207
-4.3223095 70.62896 633.58862 4279835670
-3.9741554 70.673828 633.64813 4279835416
-3.6120875 70.64325 633.71484 4279506963
-3.263576 70.691353 633.80792 4279440912
-2.9022911 70.667244 633.90826 4279440655
7.0390372 70.571571 633.09027 4278453251
7.3755765 70.445221 631.63806 4278650629
7.7228298 70.333229 630.93872 4279044357
8.0694857 70.320702 630.52686 4279307013
8.4192247 70.239433 630.15741 4279766535
8.7678394 70.247032 629.88318 4280029961
9.1186848 70.199272 629.69733 4280619526
9.4631681 70.235863 629.61298 4278202127
9.8224344 70.196159 629.62018 4283985483
10.166056 70.233986 629.70258 4294967291
10.531151 70.205383 629.85803 4294967271
10.883225 70.267265 630.08606 4292904260
11.247729 70.258072 630.34625 4281409024
11.608051 70.328697 630.64594 4278589201
11.966303 70.318474 630.88275 4280619276
12.323512 70.374374 631.03217 4279962888
12.683528 70.375526 631.36011 4279241221
-12.864834 71.073631 633.95538 4279045642
-12.531587 71.078644 633.88928 4279045643
-12.150885 71.055702 633.81537 4279111180
-11.81817 71.060379 633.75861 4279111181
-11.437519 71.040375 633.6944 4279045644
-11.105438 71.049103 633.65155 4279111693
-10.724864 71.029755 633.59949 4279177742
-10.393414 71.037979 633.5683 4278980363
-10.012794 71.01989 633.52399 4278979849
-9.6818552 71.02948 633.49023 4278848522
-9.3013382 71.01445 633.45081 4279110922
-8.9711246 71.023682 633.42474 4279243278
-8.5903454 71.003365 633.3974 4279703829
-8.2607698 71.014236 633.38226 4279769878
-7.8799448 71.002502 633.37152 4279506965
-7.5504003 71.015968 633.37561 4279375379
-7.1698222 71.002762 633.38281 4279703316
-6.8397689 71.015762 633.39276 4279834389
-6.4594531 71.006081 633.4057 4279571986
-6.1296029 71.022499 633.41956 4279441169
-5.7494416 71.011421 633.43481 4279506963
-5.4202876 71.023972 633.44946 4279900950
-5.0387516 71.011795 633.46979 4279835157
-4.7109542 71.025826 633.50208 4279703827
-4.3284206 71.016823 633.539 4279703827
-4.0004683 71.037361 633.59546 4279506963
-3.6179054 71.030518 633.66064 4279441169
-3.2901554 71.053009 633.74835 4279572241
-2.9073615 71.053116 633.84705 4279440655
-2.5795949 71.076935 633.96692 4279112205
7.0393982 70.990349 633.37299 4278322179
7.3473225 70.837608 631.86743 4278650372
7.7214451 70.73185 631.01624 4279044357
8.0386524 70.696205 630.61237 4279241221
8.4189444 70.633072 630.19128 4279569414
8.7362146 70.615356 629.90924 4279635721
9.1185703 70.587662 629.69568 4280554497
9.4311581 70.600174 629.59375 4278195991
9.8159313 70.584953 629.58148 4281491572
10.132953 70.603577 629.64392 4294967295
10.52137 70.595711 629.77979 4294967295
10.848241 70.620461 629.97961 4290080836
11.240036 70.63958 630.23212 4280491264
11.571737 70.685638 630.50201 4278913546
11.963683 70.694687 630.72534 4280553224
12.286867 70.719589 630.8606 4279831816
12.67909 70.738777 631.11206 4279241221
-13.220429 71.427246 633.94934 4278980107
-12.855198 71.382729 633.87408 4278914314
-12.506307 71.412201 633.80792 4278914314
-12.141671 71.366241 633.73456 4279045644
-11.79276 71.395638 633.67719 4279045901
-11.428529 71.352295 633.6145 4278980108
-11.079864 71.383278 633.57166 4279046157
-10.716094 71.339088 633.52045 4279111949
-10.36783 71.372314 633.49054 4279046156
-10.004468 71.329742 633.44879 4278914313
-9.6559057 71.360992 633.41937 4278717448
-9.2930813 71.326324 633.38287 4279045387
-8.9443741 71.365479 633.36163 4279243279
-8.5821562 71.319107 633.33936 4279572244
-8.2340088 71.349503 633.33154 4279703574
-7.8717051 71.313927 633.32593 4279572758
-7.5242553 71.353569 633.33539 4279506964
-7.1616235 71.317635 633.34705 4279506706
-6.8147674 71.356125 633.3609 4279441171
-6.4516177 71.321594 633.37421 4279441169
-6.1041617 71.361382 633.38708 4279441168
-5.7418871 71.325943 633.40021 4279441426
-5.3939133 71.363426 633.41217 4279572756
-5.0317755 71.327377 633.43024 4279440914
-4.6836891 71.36515 633.45691 4279243791
-4.3217025 71.331291 633.49176 4279440657
-3.9736733 71.375359 633.54401 4279506450
-3.6115143 71.343628 633.60455 4279506706
-3.2629712 71.389305 633.68707 4279572241
-2.9017324 71.36335 633.77936 4279309070
-2.5520144 71.411583 633.896 4279046413
7.0480018 71.362434 633.81421 4278387715
7.3802953 71.207863 632.08881 4278584835
7.7249012 71.053741 631.06635 4278978565
8.0708742 71.039246 630.64148 4279175685
8.4201145 70.951065 630.2074 4279372807
8.7682352 70.95414 629.90509 4279439370
9.1187201 70.901169 629.68176 4279963912
9.4631586 70.936539 629.55896 4278396691
9.8215008 70.898056 629.52924 4282273094
10.165257 70.934181 629.57971 4294941357
10.528545 70.903732 629.69061 4294945964
10.879809 70.963028 629.8764 4287116584
11.243704 70.947517 630.10999 4280748042
11.602747 71.009468 630.36536 4279111687
11.960521 70.997513 630.59161 4280028168
12.318269 71.052025 630.74188 4279766024
12.67631 71.044273 630.99219 4279241222
-13.575894 71.782578 633.93799 4278914315
-13.242406 71.787254 633.8764 4278979851
-12.861732 71.766838 633.80139 4278848778
-12.528686 71.772697 633.73633 4278848778
-12.148001 71.751648 633.66254 4278980108
-11.815389 71.757019 633.60522 4279111437
-11.434832 71.736214 633.54102 4279111437
-11.10283 71.743347 633.4986 4279111436
-10.722351 71.724373 633.44617 4279176973
-10.391009 71.73381 633.41711 4279242509
-10.010562 71.715073 633.37708 4279111179
-9.6797428 71.722687 633.35229 4278782986
-9.2996225 71.708916 633.32037 4278980107
-8.9693451 71.72245 633.30591 4279439888
-8.5889969 71.70697 633.29083 4279506453
-8.2596493 71.717651 633.29193 4279638037
-7.8789659 71.703377 633.29401 4279506966
-7.5496407 71.718224 633.31067 4279638037
-7.1689353 71.709274 633.32825 4279506707
-6.8391809 71.723373 633.3468 4279441169
-6.4584436 71.712593 633.3609 4279506705
-6.1288099 71.728249 633.37341 4279375632
-5.7480736 71.716286 633.38391 4279375633
-5.4189591 71.728043 633.39362 4279309841
-5.0377002 71.716934 633.4082 4279374863
-4.7096944 71.730606 633.43066 4279243535
-4.3279676 71.721672 633.46228 4279440658
-3.9996626 71.74028 633.51117 4279769108
-3.6178873 71.733521 633.56842 4279506707
-3.2897215 71.75383 633.64581 4279244047
-2.9077685 71.749977 633.73352 4279243534
-2.5792384 71.772911 633.84418 4279308815
-2.1969237 71.77459 633.96552 4279243535
7.351737 71.589348 632.24249 4278518787
7.7227116 71.446564 631.07837 4278912772
8.0395594 71.409813 630.68555 4279044358
8.4193134 71.343269 630.2193 4279176199
8.7365303 71.319557 629.91486 4279438858
9.1184807 71.285309 629.66931 4279833097
9.4311752 71.297859 629.5329 4280555794
9.8152685 71.286041 629.48285 4280367121
10.132732 71.301071 629.51526 4283519027
10.519485 71.287674 629.60858 4290007635
10.845322 71.315224 629.76801 4287050553
11.235959 71.329994 629.99744 4280098324
11.566867 71.364059 630.23004 4279045130
11.95988 71.381165 630.52576 4279700487
12.28433 71.413994 630.71185 4279634953
12.676038 71.431503 630.95612 4279241223
13.0172 71.560242 631.99335 4278978566
-14.280102 72.110428 633.99615 4279110923
-13.931718 72.139801 633.93652 4278979851
-13.566056 72.093376 633.86285 4278914314
-13.217521 72.121918 633.80048 4278914315
-12.852262 72.077011 633.72614 4278914315
-12.503652 72.108276 633.6615 4278980107
-12.138843 72.063721 633.58795 4279045644
-11.790221 72.092178 633.53003 4279111181
-11.425905 72.046127 633.46735 4279176716
-11.077518 72.078186 633.42438 4279242251
-10.71366 72.036873 633.37415 4279308301
-10.365575 72.070335 633.34686 4279373581
-10.002334 72.026413 633.31091 4279308302
-9.6542826 72.057831 633.29199 4279111435
-9.2914038 72.018364 633.26489 4279111436
-8.9432449 72.058868 633.25665 4279243535
-8.5809746 72.023087 633.24847 4279506451
-8.233469 72.057716 633.25763 4279572245
-7.8708973 72.018585 633.26593 4279507221
-7.5234494 72.059303 633.28918 4279572501
-7.1612329 72.026459 633.31171 4279506707
-6.8139253 72.066643 633.33612 4279375120
-6.4514685 72.031471 633.3512 4279309582
-6.1031122 72.070053 633.36456 4279244047
-5.7413716 72.032837 633.3739 4279177997
-5.3933649 72.070534 633.3819 4279309071
-5.0311594 72.034172 633.39478 4279374608
-4.6830363 72.071548 633.41156 4279440400
-4.3210669 72.037483 633.43964 4279571986
-3.9729555 72.081078 633.48322 4279703572
-3.6111674 72.049217 633.53424 4279506706
-3.2624629 72.09269 633.60492 4279374864
-2.9012895 72.062393 633.68457 4279374608
-2.5517974 72.110863 633.78918 4279374864
-2.1914709 72.087997 633.90381 4279374864
7.3834386 71.94619 632.34265 4278387714
7.7254596 71.764725 631.09467 4278781444
8.0714264 71.749702 630.68579 4278978822
8.4203606 71.657555 630.21448 4279176200
8.7682476 71.657913 629.8938 4279373578
9.1184292 71.599121 629.64636 4279832587
9.4681044 71.63089 629.49402 4280031502
9.82022 71.59787 629.43085 4281541399
10.172071 71.629021 629.45343 4285347096
10.526331 71.594719 629.52856 4286398260
10.882894 71.650475 629.67468 4284429359
11.240009 71.634293 629.88483 4280293912
11.597898 71.68779 630.11169 4278915849
11.956997 71.683098 630.396 4279700999
12.31568 71.748177 630.61102 4279832586
12.672856 71.73378 630.81354 4279504137
13.034481 71.862854 631.65253 4279044614
-14.287303 72.496574 633.93237 4279110667
-13.953541 72.500626 633.87061 4278914058
-13.573035 72.478271 633.7962 4278848778
-13.23958 72.483429 633.73419 4278914315
-12.859018 72.463776 633.66101 4278980108
-12.526074 72.469872 633.59747 4279111437
-12.145424 72.448753 633.52441 4279111437
-11.812952 72.453094 633.46704 4279045644
-11.432495 72.432045 633.40399 4279111179
-11.100577 72.43956 633.36237 4279045899
-10.720276 72.423042 633.31219 4279243021
-10.388949 72.432915 633.28796 4279242764
-10.008761 72.412437 633.2561 4279308557
-9.6781197 72.418633 633.24353 4279243021
-9.2981853 72.405113 633.22296 4279243277
-8.9681015 72.421959 633.22296 4279046926
-8.5882645 72.412025 633.22296 4279440914
-8.2589397 72.425613 633.24127 4279638549
-7.8785539 72.412987 633.25751 4279573271
-7.5492225 72.428459 633.28851 4279638036
-7.1686215 72.420822 633.31726 4279505937
-6.8392129 72.436653 633.34705 4279243278
-6.4579926 72.425423 633.36462 4279177484
-6.1286683 72.439461 633.37952 4279177484
-5.7475128 72.427246 633.3877 4279111692
-5.4185386 72.438492 633.39398 4279243022
-5.0372238 72.426804 633.40302 4279243278
-4.7088656 72.43972 633.41547 4279571472
-4.3273101 72.431122 633.43896 4279703058
-3.9990292 72.448441 633.47662 4279572242
-3.617491 72.441032 633.5224 4279572243
-3.2892311 72.45929 633.58661 4279703059
-2.9074938 72.453842 633.66132 4279505938
-2.5789616 72.476082 633.75916 4279506193
-2.1971347 72.477791 633.86975 4279440657
7.3531857 72.311241 632.34918 4278387458
7.722868 72.150093 631.03583 4278781700
8.0395737 72.114349 630.67932 4279044615
8.4191484 72.04818 630.20123 4279176713
8.7362223 72.02359 629.88666 4279439115
9.1177416 71.985397 629.62677 4279767563
9.4357071 71.990044 629.4657 4280096528
9.8192959 71.97831 629.38715 4281214233
10.13938 71.988892 629.39301 4283248678
10.52555 71.974892 629.45392 4283645754
10.848751 72.001541 629.57642 4282861367
11.238066 72.010841 629.77478 4279314201
11.56294 72.040771 629.98767 4279504909
11.954926 72.060188 630.28113 4279898633
12.280426 72.095825 630.4928 4279701770
12.669941 72.110519 630.68958 4279766537
13.001132 72.179108 631.20154 4279241479
-14.991498 72.823677 633.99811 4278979594
-14.643254 72.85347 633.93732 4279045130
-14.277315 72.808189 633.86609 4279110667
-13.928905 72.837296 633.80115 4278914057
-13.563186 72.789925 633.72662 4278914314
-13.21483 72.819092 633.664 4278980108
-12.849521 72.774841 633.59198 4278980108
-12.501204 72.806107 633.52948 4279045644
-12.136396 72.760864 633.45862 4279045900
-11.788032 72.789848 633.40186 4279045644
-11.423744 72.743568 633.34167 4279176973
-11.075501 72.775223 633.29987 4279111692
-10.711779 72.735039 633.25421 4279111691
-10.363778 72.770615 633.23346 4278980876
-10.000766 72.726768 633.20813 4278980619
-9.6529827 72.757065 633.20319 4279112205
-9.2903738 72.716888 633.19092 4279243534
-8.9424181 72.760193 633.19995 4279244047
-8.5805054 72.728989 633.20911 4279375634
-8.2329922 72.770714 633.2356 4279573014
-7.8708363 72.735146 633.25836 4279441940
-7.5228109 72.774582 633.29553 4279440915
-7.1614347 72.739983 633.32709 4279374609
-6.8131742 72.780396 633.36133 4279242765
-6.45186 72.745811 633.3797 4279242509
-6.1025538 72.783875 633.396 4279308043
-5.7417645 72.746674 633.40387 4279373838
-5.3926806 72.784042 633.40894 4279439887
-5.031415 72.74614 633.41632 4279308815
-4.6824036 72.784065 633.42401 4279505680
-4.3211865 72.751968 633.44354 4279637266
-3.9723294 72.793991 633.4743 4279637265
-3.6111481 72.759071 633.51373 4279571985
-3.2624505 72.800957 633.57074 4279637778
-2.901185 72.770287 633.63855 4279571986
-2.5521727 72.818222 633.73065 4279506193
-2.1912751 72.79245 633.83527 4279440656
-1.8415706 72.843651 633.96222 4279375119
7.3834276 72.647598 632.27002 4278322178
7.7246957 72.465607 631.02179 4278781700
8.0709267 72.453194 630.64557 4279044871
8.419754 72.364357 630.17603 4279242250
8.7674322 72.363876 629.84747 4279505421
9.1173458 72.300613 629.59583 4279899150
9.4667091 72.323547 629.42401 4280293904
9.8184166 72.28466 629.34003 4281344022
10.170424 72.319145 629.3385 4281675805
10.523899 72.284584 629.3866 4283648561
10.879744 72.335831 629.49988 4285819750
11.235751 72.317543 629.67804 4280893227
11.593539 72.369598 629.89185 4278392840
11.95223 72.362556 630.16797 4279963657
12.311431 72.429054 630.40051 4280095500
12.66849 72.415741 630.59192 4279832587
13.031992 72.504456 631.0484 4279373064
-14.999053 73.211517 633.94177 4278979594
-14.664858 73.216721 633.87842 4278782985
-14.284624 73.194626 633.80499 4279045385
-13.950749 73.197449 633.73822 4279045386
-13.570351 73.175163 633.66357 4279111180
-13.23692 73.179733 633.60114 4279111436
-12.8566 73.161209 633.52997 4278980107
-12.523692 73.16835 633.46899 4278914315
-12.14327 73.147545 633.39972 4279045644
-11.810873 73.151207 633.3446 4279111437
-11.430554 73.129829 633.28687 4279242766
-11.098763 73.136185 633.24774 4279308558
-10.718843 73.121483 633.20691 4279243022
-10.387836 73.134041 633.19257 4279045900
-10.007964 73.117783 633.17609 4278849546
-9.6778717 73.124184 633.18018 4278915340
-9.2978907 73.108727 633.17981 4279112719
-8.9682503 73.12719 633.19861 4279375377
-8.588088 73.123817 633.21857 4279440914
-8.2589607 73.142227 633.25244 4279572499
-7.8783059 73.131088 633.28241 4279572500
-7.5491743 73.146576 633.32416 4279440657
-7.1683283 73.137558 633.36005 4279243023
-6.8395367 73.151581 633.39642 4279242766
-6.4579802 73.140053 633.41681 4279176972
-6.1292553 73.154663 633.43451 4279045643
-5.7476287 73.144531 633.4422 4279242764
-5.4190192 73.156334 633.44556 4279374350
-5.0372934 73.143181 633.44952 4279308815
-4.7089419 73.156105 633.45355 4279374607
-4.3272219 73.148148 633.46851 4279440143
-3.9989679 73.16378 633.49298 4279571472
-3.6172199 73.154022 633.52716 4279506192
-3.2891202 73.169746 633.57861 4279506447
-2.9077148 73.164642 633.64203 4279637264
-2.5789106 73.185875 633.72778 4279571728
-2.1976466 73.18605 633.82782 4279440655
-1.8687077 73.209999 633.94659 4279309582
7.3512573 73.001152 632.17218 4278453250
7.721879 72.84404 630.93268 4278913029
8.0387831 72.815414 630.60834 4279176200
8.4185505 72.754181 630.14062 4279504908
8.7353754 72.729233 629.82855 4279899407
9.117094 72.686226 629.5708 4280162321
9.4344931 72.682419 629.39874 4280687379
9.8182211 72.66597 629.30554 4281410064
10.13745 72.676819 629.29144 4282394397
10.523458 72.668381 629.33044 4286267210
10.845865 72.694328 629.42535 4288637025
11.234268 72.699409 629.59174 4282139965
11.559197 72.723694 629.79541 4278917901
11.950157 72.739769 630.06689 4280423686
12.276193 72.781136 630.29144 4280096014
12.666341 72.797424 630.51001 4279964173
12.994055 72.847794 630.85034 4279504394
-15.355091 73.567726 633.95068 4279045131
-14.988904 73.524574 633.88104 4279045131
-14.640596 73.554901 633.81543 4279045386
-14.274692 73.505898 633.74023 4278979849
-13.926229 73.531754 633.67163 4279045642
-13.560639 73.485214 633.59851 4279111180
-13.212337 73.517265 633.53662 4279176972
-12.847157 73.4739 633.46783 4278914314
-12.498981 73.504936 633.40979 4278848778
-12.134344 73.459297 633.3454 4279045643
-11.78651 73.488731 633.29468 4279111693
-11.422096 73.44352 633.24286 4279177485
-11.074553 73.476341 633.20831 4279374351
-10.710587 73.435501 633.17548 4279374352
-10.363446 73.472984 633.16882 4279111693
-10.000219 73.434593 633.16132 4279177742
-9.6532421 73.470436 633.17474 4279178510
-9.2904358 73.428917 633.18384 4279375631
-8.9430227 73.472282 633.2113 4279506963
-8.5810881 73.445763 633.23877 4279440915
-8.2335348 73.489899 633.27771 4279440400
-7.8715968 73.454308 633.31067 4279506193
-7.5234742 73.494125 633.35541 4279374351
-7.1621504 73.458115 633.39136 4279111694
-6.8137794 73.49733 633.43005 4279045902
-6.4525623 73.461426 633.45209 4279111436
-6.1032705 73.502563 633.47235 4279045899
-5.7424502 73.467834 633.4823 4279111436
-5.3930902 73.505684 633.48712 4279177486
-5.0319638 73.467453 633.49115 4279177486
-4.6823516 73.504204 633.49359 4279177486
-4.3215723 73.470322 633.50507 4279243021
-3.972137 73.511307 633.52338 4279309070
-3.6113651 73.475746 633.55109 4279505935
-3.2625763 73.516418 633.59595 4279637520
-2.9012122 73.484344 633.65216 4279637521
-2.5528107 73.531815 633.73187 4279571986
-2.1912284 73.504875 633.82471 4279506449
-1.8421743 73.554893 633.93933 4279506448
7.3763356 73.276337 631.58795 4278453506
7.7217631 73.146286 630.77307 4278913029
8.0692072 73.144936 630.48553 4279175944
8.4186993 73.067558 630.10156 4279570701
8.7666283 73.0662 629.78021 4280030994
9.1163101 72.999481 629.53314 4280293906
9.4658089 73.017555 629.35651 4280622614
9.8171253 72.974747 629.2619 4281736465
10.169084 73.012344 629.24408 4285409826
10.522807 72.98275 629.2749 4288632423
10.877612 73.032852 629.36432 4287578450
11.233323 73.00898 629.51422 4282069802
11.590193 73.05571 629.71991 4279902221
11.948882 73.043137 629.97089 4280358926
12.307246 73.114899 630.2254 4280359186
12.66644 73.10968 630.47577 4280096016
13.025334 73.180214 630.76184 4279635980
13.412085 73.359535 632.63898 4279373066
-15.710805 73.924217 633.94989 4278979593
-15.376462 73.931313 633.89587 4278848521
-14.996449 73.911476 633.82495 4278979594
-14.662313 73.914589 633.75891 4279176716
-14.281994 73.891197 633.68323 4279045900
-13.948253 73.893791 633.61627 4278979850
-13.567971 73.874657 633.54553 4278979850
-13.234696 73.880981 633.48761 4279045643
-12.854591 73.861832 633.42236 4278914571
-12.521861 73.867424 633.36902 4278914058
-12.14166 73.846497 633.30994 4279111179
-11.809582 73.851295 633.26599 4279111436
-11.429799 73.834724 633.22119 4279243022
-11.098077 73.843681 633.19427 4279440144
-10.718699 73.828583 633.1698 4279439888
-10.387653 73.839859 633.17255 4279374608
-10.008686 73.828957 633.1759 4279571984
-9.6783142 73.842964 633.19794 4279966226
-9.2988338 73.831192 633.21796 4280622104
-8.9689083 73.847572 633.25195 4280097557
-8.5891876 73.843597 633.28687 4279309584
-8.259553 73.861374 633.32831 4279112206
-7.8791275 73.852287 633.36456 4279439886
-7.5498075 73.867828 633.40942 4279243021
-7.1691728 73.857376 633.44678 4279111693
-6.840239 73.870911 633.48474 4279045901
-6.459022 73.861343 633.50934 4279045644
-6.1300712 73.876572 633.5304 4279045644
-5.7486386 73.868286 633.54297 4279045900
-5.4198403 73.880699 633.54755 4279045900
-5.0378699 73.867134 633.55054 4278980364
-4.7094326 73.879608 633.5517 4279046156
-4.3272104 73.870857 633.55975 4278914826
-3.9991066 73.884338 633.57294 4279111692
-3.6169562 73.873161 633.59491 4279374605
-3.2890017 73.887665 633.63367 4279505935
-2.9070668 73.88324 633.68488 4279571729
-2.5789347 73.903328 633.75677 4279703058
-2.1972256 73.900497 633.84363 4279506194
-1.8688017 73.922951 633.95038 4279506449
7.0433331 73.854828 633.49878 4278256128
7.3483272 73.679398 631.90503 4278453251
7.7206693 73.540466 630.82513 4278913030
8.0379782 73.515091 630.52832 4279110408
8.4175053 73.453293 630.05688 4279373323
8.7343206 73.429504 629.755 4279899408
9.1158772 73.386932 629.50562 4280228114
9.4334698 73.378815 629.33502 4280294165
9.8169298 73.359947 629.23657 4281344536
10.136267 73.372223 629.21265 4284429608
10.522211 73.367142 629.23767 4287055170
10.843921 73.393173 629.31512 4283907636
11.231917 73.393311 629.45544 4281150497
11.556409 73.413506 629.64838 4280557334
11.946632 73.424751 629.89246 4280491539
12.272943 73.467651 630.13525 4280294164
12.664634 73.495346 630.42383 4280096529
12.990076 73.531242 630.64117 4279701773
13.397414 73.700127 632.19574 4279307529
-16.414032 74.250877 633.99005 4279176972
-16.066643 74.280922 633.94995 4278979850
-15.70031 74.236244 633.89154 4278979850
-15.352561 74.269241 633.83588 4279045643
-14.986269 74.223373 633.76428 4278979850
-14.638123 74.250336 633.69934 4279045643
-14.272207 74.201141 633.62408 4279111435
-13.923824 74.23159 633.55859 4279111435
-13.558511 74.188492 633.49139 4279111436
-13.210294 74.22007 633.43658 4279176973
-12.845496 74.174347 633.37622 4279045644
-12.49742 74.204681 633.32904 4278914314
-12.133164 74.159813 633.2785 4279045387
-11.785655 74.192642 633.24341 4279176972
-11.421631 74.151703 633.20898 4279308559
-11.074317 74.189217 633.19177 4279505681
-10.710824 74.15036 633.17822 4279506193
-10.363889 74.187912 633.19116 4279374865
-10.001037 74.150314 633.20477 4279440398
-9.6539583 74.190048 633.23572 4280293138
-9.2916708 74.154465 633.26495 4280753692
-8.9441338 74.199097 633.30536 4280227605
-8.5826168 74.169113 633.34515 4279111948
-8.2344837 74.212166 633.38916 4278980620
-7.8731833 74.177277 633.42584 4279242508
-7.524672 74.217056 633.47034 4279242764
-7.1635423 74.181282 633.50616 4279045900
-6.8147016 74.222771 633.54352 4278980108
-6.4537482 74.188202 633.56976 4278980108
-6.1044011 74.228058 633.59259 4279045643
-5.7435603 74.193199 633.60773 4279045643
-5.3939562 74.232079 633.6145 4278980107
-5.0329852 74.194107 633.61829 4279045643
-4.6831088 74.231834 633.61932 4279046156
-4.3224039 74.197098 633.62488 4279045899
-3.9725916 74.235863 633.63226 4279111948
-3.6118817 74.19828 633.64844 4279243020
-3.262568 74.238632 633.6806 4279309069
-2.901583 74.206863 633.72443 4279374863
-2.5526054 74.252075 633.78992 4279506193
-2.1914413 74.221085 633.86877 4279440657
-1.842176 74.269485 633.97101 4279440656
7.3735662 73.956261 631.33221 4278519043
7.720139 73.838501 630.63208 4278913030
8.0679054 73.842438 630.37695 4279044871
8.417408 73.765999 630.0097 4279373322
8.7652168 73.765778 629.70148 4279767821
9.1151857 73.699303 629.46088 4280162322
9.4643946 73.716957 629.28882 4280294164
9.8161993 73.670425 629.1936 4280819993
10.167938 73.70755 629.16913 4281544477
10.521896 73.677597 629.1922 4282266397
10.875889 73.725578 629.26996 4281872420
11.231236 73.702049 629.39832 4281149728
11.587776 73.751274 629.59198 4280755738
11.945944 73.733101 629.81793 4280492311
12.304224 73.804276 630.07782 4280228886
12.664678 73.805534 630.37335 4279965714
13.021419 73.864937 630.55969 4279636750
13.397148 73.947327 631.58826 4279373323
-16.801256 74.659241 633.99017 4279111179
-16.422243 74.6408 633.94513 4279110922
-16.087795 74.644577 633.90265 4279045386
-15.708391 74.624245 633.84247 4279111436
-15.373919 74.630257 633.78607 4279111180
-14.994097 74.61068 633.71625 4278914314
-14.659945 74.612991 633.65356 4278914314
-14.27983 74.590424 633.58124 4279111436
-13.946231 74.595238 633.51978 4279177229
-13.566174 74.577751 633.45728 4279177230
-13.233223 74.583893 633.40784 4279242766
-12.853312 74.564316 633.35321 4279111438
-12.520899 74.569839 633.31262 4279045644
-12.141088 74.552376 633.27118 4279111436
-11.809291 74.560448 633.24438 4279177229
-11.429861 74.547302 633.22009 4279177229
-11.098484 74.560486 633.21185 4279505680
-10.719452 74.548973 633.20886 4279571473
-10.388693 74.559952 633.23053 4279374607
-10.010012 74.54921 633.25385 4279046412
-9.6797571 74.565636 633.29181 4279505421
-9.3003712 74.557297 633.33087 4279898896
-8.9706545 74.573692 633.37714 4279570959
-8.5907087 74.57016 633.42383 4278783755
-8.2611799 74.588455 633.47076 4278914059
-7.8806472 74.580208 633.51093 4279045386
-7.5514464 74.594879 633.55646 4278914314
-7.1707625 74.58493 633.59302 4278980363
-6.8416409 74.600769 633.62994 4279111436
-6.4605508 74.593399 633.65778 4279045900
-6.1315031 74.607231 633.68176 4279045900
-5.7500358 74.597252 633.69928 4278914314
-5.4211712 74.610115 633.70801 4278914314
-5.0391488 74.598778 633.71344 4279045643
-4.7106409 74.610832 633.71613 4279045899
-4.3283076 74.600281 633.72131 4279111436
-4.0000052 74.612862 633.72552 4279111436
-3.6174333 74.603706 633.73676 4279177228
-3.289567 74.617729 633.76001 4279111948
-2.9070644 74.608803 633.79559 4279243277
-2.5793126 74.625908 633.84943 4279374350
-2.1967201 74.621727 633.91968 4279308814
7.0417223 74.507103 632.98779 4278256129
7.346262 74.367027 631.71002 4278650372
7.7196317 74.237877 630.72797 4278978823
8.0370951 74.215714 630.44708 4279241736
8.4163694 74.152 629.96698 4279570955
8.7333431 74.129395 629.67072 4279834127
9.114646 74.087593 629.42407 4280163091
9.4325294 74.077171 629.25824 4280687894
9.8157301 74.055466 629.16089 4280557587
10.135202 74.066872 629.13611 4280558870
10.521111 74.060936 629.15936 4280626205
10.842206 74.082565 629.23395 4280822303
11.230354 74.082695 629.36194 4280756510
11.554148 74.108498 629.54712 4281017885
11.944624 74.121643 629.77277 4280558363
12.270525 74.165337 630.02783 4280360472
12.663918 74.193436 630.33289 4279900179
12.987167 74.220963 630.48792 4279570958
13.391879 74.305084 631.29755 4279307529
-17.125643 74.96209 633.99445 4279176716
-16.778408 74.998711 633.95453 4279110666
-16.412134 74.956764 633.90759 4279176459
-16.06464 74.986015 633.86096 4279111179
-15.698263 74.937935 633.79828 4279045643
-15.350389 74.967697 633.74011 4278979851
-14.984225 74.921394 633.67029 4278979851
-14.63615 74.95237 633.61011 4279045643
-14.270489 74.905907 633.54053 4279177228
-13.922259 74.935799 633.48291 4279111693
-13.557316 74.891457 633.42572 4278980364
-13.209245 74.924385 633.38116 4278980364
-12.844878 74.879822 633.3335 4279045901
-12.497015 74.912415 633.30121 4278980365
-12.133139 74.870064 633.26965 4279177229
-11.785889 74.906502 633.25305 4279308815
-11.422271 74.869827 633.23969 4279243278
-11.075244 74.909508 633.24164 4279308814
-10.712113 74.871216 633.2486 4279243278
-10.365425 74.90992 633.2774 4278980620
-10.002733 74.873322 633.30701 4278980107
-9.655858 74.915291 633.35016 4279046155
-9.2935925 74.882996 633.39471 4279111178
-8.9462242 74.92926 633.44537 4278914571
-8.5847187 74.897957 633.49634 4278914316
-8.2365913 74.939537 633.54688 4278979850
-7.8753605 74.905266 633.59106 4279110923
-7.5267701 74.94796 633.63953 4279045386
-7.1656418 74.914307 633.67889 4279045900
-6.816597 74.957169 633.71942 4279111693
-6.4556408 74.923782 633.75262 4279046156
-6.1062975 74.964211 633.78363 4278980364
-5.7453833 74.929016 633.81036 4278914313
-5.3957753 74.968895 633.82892 4278979850
-5.0347462 74.931808 633.84473 4279045643
-4.684803 74.97036 633.85492 4279045386
-4.3240104 74.935013 633.86456 4278979851
-3.9738593 74.975052 633.86755 4278914314
-3.6131289 74.939308 633.87195 4279045643
-3.2631114 74.976852 633.88251 4279045899
-2.9023743 74.938995 633.90118 4279111692
-2.5524192 74.98101 633.93805 4279177484
-2.1918676 74.949883 633.99023 4279308814
7.3721318 74.65081 631.20227 4278650629
7.7194848 74.539085 630.56885 4279110406
8.0671377 74.543182 630.30457 4279373577
8.4165134 74.463699 629.9267 4279899662
8.7640133 74.466187 629.61414 4280425491
9.1140108 74.400459 629.3681 4280492053
9.4632139 74.415871 629.20038 4280820249
9.8150959 74.364479 629.10602 4280885785
10.166691 74.399734 629.08563 4281149206
10.521051 74.367424 629.11407 4281084186
10.874706 74.412544 629.19812 4281281824
11.230511 74.386261 629.32446 4281019168
11.586447 74.445953 629.51758 4280887068
11.944787 74.435593 629.73297 4280689693
12.30281 74.507133 629.99927 4280426265
12.663037 74.504837 630.28516 4279900178
13.019114 74.55735 630.43298 4279374092
13.38643 74.595444 631.07172 4279241994
-17.134712 75.35482 633.97467 4278979594
-16.800022 75.363052 633.93237 4278979594
-16.420914 75.346123 633.88257 4278979850
-16.086315 75.350243 633.83344 4279045386
-15.706772 75.329201 633.76849 4278979594
-15.372178 75.33242 633.71014 4278914058
-14.992474 75.311165 633.64221 4278848778
-14.658426 75.315987 633.58527 4279111180
-14.2786 75.297745 633.52094 4279242766
-13.945278 75.303185 633.46979 4279111692
-13.565545 75.285538 633.41864 4278914827
-13.232892 75.291977 633.38165 4278849035
-12.853149 75.273361 633.34137 4278980108
-12.521136 75.281364 633.31702 4279111437
-12.141549 75.268593 633.29462 4279176972
-11.81013 75.279442 633.28625 4279243021
-11.430984 75.268044 633.28229 4279308813
-11.099877 75.28157 633.29224 4279111692
-10.720836 75.271004 633.30554 4279045899
-10.390307 75.283791 633.33923 4278979850
-10.011508 75.274597 633.37164 4278980106
-9.6811256 75.292221 633.41699 4279045643
-9.3019333 75.28788 633.4649 4279046157
-8.9720526 75.305023 633.51868 4279045900
-8.5926991 75.298378 633.57574 4279045899
-8.2630339 75.314148 633.63293 4279045643
-7.8828692 75.309303 633.68597 4279176716
-7.5537915 75.328598 633.74329 4279242509
-7.1730208 75.322968 633.7926 4279242509
-6.844028 75.340134 633.84363 4279111436
-6.4629545 75.33403 633.88922 4278980107
-6.1340017 75.35006 633.93256 4278914570
-5.7524886 75.342125 633.96832 4279045642
-5.4236598 75.35611 633.99579 4278980106
7.0544629 75.309174 633.75378 4278321920
7.3451433 75.063789 631.59985 4278650372
7.7196255 74.94178 630.67285 4279307270
8.036068 74.915741 630.35663 4279505162
8.4152365 74.848358 629.89502 4280162319
8.7321806 74.825844 629.58136 4280557588
9.1127691 74.787987 629.32007 4280755224
9.4311771 74.776085 629.15631 4280886810
9.8136587 74.747086 629.05945 4280689944
10.133887 74.753052 629.04224 4281019167
10.519404 74.75045 629.07745 4280366123
10.840983 74.771812 629.16711 4281283114
11.229255 74.771133 629.30359 4280955688
11.552917 74.802773 629.49463 4280887839
11.943954 74.824936 629.71838 4280755484
12.269402 74.871178 629.97614 4280623129
12.662724 74.895226 630.25922 4279965714
12.985462 74.915306 630.38916 4279439372
13.384145 74.969353 630.92249 4279241735
-17.125025 75.671638 633.961 4278914058
-16.777609 75.70475 633.91547 4278782985
-16.411299 75.661064 633.86267 4278848264
-16.063496 75.691399 633.80847 4278914057
-15.697117 75.645088 633.74127 4278979594
-15.349085 75.674904 633.68134 4278914314
-14.983062 75.625038 633.61481 4278848778
-14.635177 75.655022 633.56238 4278980107
-14.269853 75.612602 633.50433 4279111693
-13.921873 75.648392 633.45996 4279045900
-13.557323 75.605469 633.41687 4278914571
-13.209525 75.637001 633.38721 4278914571
-12.845455 75.592735 633.35614 4278980107
-12.497924 75.629715 633.34015 4278980108
-12.134344 75.592422 633.32599 4279111437
-11.787038 75.630173 633.32538 4279176973
-11.423976 75.590897 633.32861 4279111436
-11.076597 75.629829 633.34424 4278979849
-10.714108 75.594284 633.36145 4278914056
-10.366796 75.636124 633.39594 4278914057
-10.004701 75.599762 633.42761 4279176716
-9.6572323 75.642471 633.47345 4279242252
-9.2954845 75.613632 633.52179 4279308558
-8.9477892 75.658112 633.58008 4279308558
-8.5866547 75.622368 633.64313 4279045899
-8.2386141 75.666168 633.71094 4278980106
-7.8776841 75.637993 633.77771 4279045642
-7.5292954 75.68647 633.85175 4279176716
-7.1684008 75.656593 633.91858 4279176973
-6.8195658 75.702812 633.98846 4279045387
7.3712482 75.350792 631.12091 4278584836
7.7201037 75.248566 630.59613 4279175943
8.0664721 75.252159 630.27527 4279505162
8.4160728 75.163239 629.87994 4279899917
8.7626743 75.162964 629.53265 4280360467
9.1128521 75.0979 629.26691 4280624150
9.461441 75.113045 629.0965 4280953629
9.8136044 75.056526 629.00006 4281281566
10.165281 75.088463 628.98749 4281941018
10.519425 75.054398 629.02991 4282859807
10.873339 75.101509 629.13312 4282794017
11.229268 75.077538 629.27521 4281939238
11.585744 75.144608 629.47943 4281085467
11.944002 75.138397 629.69727 4280821277
12.302586 75.212685 629.96295 4280491800
12.661738 75.209106 630.21851 4280031250
13.018812 75.253204 630.35175 4279439627
13.380938 75.272583 630.80597 4279241735
-17.134487 76.066811 633.95752 4278914315
-16.799589 76.072243 633.90881 4278914058
-16.420448 76.054184 633.85272 4278782984
-16.085569 76.057205 633.79596 4278848520
-15.706028 76.036179 633.72791 4278979849
-15.371449 76.039276 633.66913 4278979850
-14.991785 76.018417 633.60583 4278980107
-14.65805 76.023384 633.55792 4278980107
-14.278479 76.008118 633.50757 4278980108
-13.945559 76.017136 633.47021 4279111437
-13.566058 76.000755 633.43475 4278980364
-13.233633 76.006691 633.41211 4279045644
-12.854233 75.991531 633.38892 4278980107
-12.522421 76.003029 633.37982 4278914315
-12.143187 75.992538 633.37268 4279045388
-11.81187 76.003685 633.37616 4279176460
-11.432597 75.990944 633.38452 4278979851
-11.101838 76.00351 633.40314 4278782729
-10.722538 75.99514 633.42169 4278848521
-10.392335 76.009804 633.45575 4278914058
-10.01283 76.000359 633.48633 4279242253
-9.6829844 76.017189 633.53198 4279373838
-9.3034496 76.013763 633.58319 4279308303
-8.9739599 76.031685 633.6463 4279242765
-8.5943909 76.026657 633.71954 4278848777
-8.2652521 76.046692 633.80188 4278848521
-7.8854036 76.046272 633.88666 4278914313
-7.5566583 76.069572 633.98248 4279045386
7.3435946 75.757507 631.45679 4278453251
7.7205038 75.655685 630.7182 4278978820
8.0364618 75.621857 630.32794 4279438856
8.4151077 75.555702 629.87048 4279637259
8.7309895 75.526062 629.5174 4279900943
9.1118507 75.483551 629.2287 4280361234
9.42943 75.46949 629.05902 4281149210
9.8122416 75.439026 628.95685 4281873942
10.132295 75.442558 628.94366 4285486383
10.517589 75.440926 628.99371 4288511063
10.839691 75.464882 629.10138 4285494092
11.228339 75.469643 629.25879 4282930997
11.551854 75.504204 629.4621 4282070310
11.943805 75.527527 629.69116 4280756502
12.268484 75.575401 629.94666 4280294933
12.661768 75.598763 630.19519 4280096526
12.984425 75.612816 630.31812 4279439369
13.379815 75.654053 630.71539 4279241733
-17.491547 76.431129 633.9989 4278979851
-17.124987 76.384727 633.95538 4279045387
-16.777519 76.416061 633.90405 4279045387
-16.411016 76.370361 633.84576 4278979850
-16.063101 76.400955 633.78503 4279045642
-15.696765 76.353714 633.71777 4278979849
-15.34868 76.382271 633.65948 4279045643
-14.982969 76.334435 633.6004 4279111436
-14.63514 76.36956 633.55688 4278980363
-14.270327 76.328735 633.51416 4278914570
-13.922501 76.363258 633.4834 4279045900
-13.55836 76.320564 633.45612 4279045900
-13.210716 76.355377 633.43921 4279111179
-12.846965 76.314125 633.42358 4279045643
-12.499634 76.351791 633.41992 4278979594
-12.136271 76.315834 633.41736 4278913802
-11.788942 76.355072 633.42395 4278913802
-11.425999 76.315331 633.43359 4279045131
-11.078553 76.353477 633.45209 4279045130
-10.715998 76.316025 633.46912 4278914057
-10.368576 76.357185 633.49976 4278914057
-10.006327 76.322769 633.52704 4279111179
-9.6588688 76.367943 633.57269 4279242509
-9.2970905 76.337471 633.62488 4279242766
-8.9494505 76.383858 633.69531 4279111436
-8.5884609 76.354179 633.77783 4278980107
-8.240777 76.402634 633.87976 4278979850
-7.8801975 76.375969 633.9856 4278979850
7.3706765 76.054741 631.06775 4278322435
7.7212338 75.968658 630.67584 4278847492
8.0669012 75.972023 630.29364 4279176711
8.4163675 75.879868 629.88916 4279834381
8.762434 75.868309 629.4939 4280163345
9.1122303 75.79377 629.19733 4280491281
9.4606142 75.804802 629.01495 4280298008
9.8124361 75.748512 628.90796 4283513373
10.157504 75.784874 628.89337 4289361994
10.517918 75.749352 628.94678 4294952862
10.863976 75.803848 629.06494 4294950330
11.228744 75.779411 629.22913 4287923811
11.579716 75.850502 629.44739 4282011444
11.943927 75.842896 629.67297 4281017880
12.302492 75.91925 629.93475 4279770900
12.660958 75.911446 630.16418 4279833868
13.017471 75.955643 630.2868 4279308039
13.377446 75.96167 630.63464 4279175942
-17.134766 76.780273 633.95935 4279176459
-16.799725 76.783577 633.90753 4279045386
-16.420536 76.763725 633.84839 4278914057
-16.085579 76.768028 633.78784 4278979850
-15.706092 76.749458 633.72272 4279111178
-15.371593 76.751373 633.66754 4279176971
-14.992157 76.731453 633.61255 4279177228
-14.658546 76.739914 633.57336 4279111692
-14.279423 76.72683 633.53857 4278914570
-13.946603 76.734711 633.51404 4278914570
-13.56753 76.719688 633.49414 4278980105
-13.235115 76.727341 633.48224 4278980106
-12.85613 76.713615 633.47302 4279111179
-12.524334 76.725266 633.47351 4278979594
-12.14524 76.716255 633.47357 4278848265
-11.813945 76.729202 633.47998 4278782729
-11.434644 76.71701 633.48901 4278979594
-11.103723 76.725983 633.50568 4279111179
-10.724314 76.714539 633.52014 4278914314
-10.393926 76.729355 633.547 4278848521
-10.014306 76.723083 633.57227 4278979850
-9.6844482 76.740936 633.61853 4279111436
-9.3048534 76.738548 633.6745 4279111436
-8.9755268 76.759674 633.75134 4279111436
-8.5960875 76.757927 633.84662 4279111436
-8.2674141 76.781281 633.96765 4279111179
7.3389187 76.417015 631.04547 4278387715
7.7201715 76.362511 630.68396 4278847491
8.0365086 76.338692 630.30981 4279111175
8.4156675 76.279396 629.89514 4280293905
8.7310066 76.233963 629.50195 4280688404
9.111517 76.178894 629.17993 4280819983
9.4287262 76.162933 628.99359 4280821273
9.8051662 76.138672 628.87634 4285548318
10.131206 76.141922 628.8559 4293036125
10.50753 76.14505 628.90973 4294963441
10.838456 76.166321 629.02832 4294967295
11.220705 76.177528 629.20563 4294945469
11.551115 76.211411 629.42419 4286272325
11.943583 76.233231 629.66644 4281739538
12.268002 76.278709 629.91687 4279244561
12.661089 76.299461 630.14679 4279571207
12.983749 76.316826 630.26648 4278979333
13.376892 76.345985 630.56824 4279044612
-17.491808 77.142738 633.99982 4278979594
-17.125286 77.099815 633.95728 4279045130
-16.777781 77.129379 633.90607 4278913801
-16.411297 77.08017 633.84747 4278979593
-16.063269 77.110985 633.78699 4279111178
-15.697136 77.066444 633.72577 4279111179
-15.349192 77.098633 633.6734 4279176971
-14.983652 77.053696 633.62311 4279242764
-14.636082 77.088326 633.5882 4279242765
-14.271441 77.046883 633.56 4279045899
-13.923954 77.082672 633.54083 4278914569
-13.559988 77.04126 633.5271 4278914313
-13.212502 77.076401 633.51874 4279045642
-12.848913 77.036217 633.51385 4279045387
-12.501643 77.075531 633.51733 4278914058
-12.138361 77.039238 633.51758 4278913801
-11.790879 77.079063 633.52362 4278848521
-11.427844 77.038742 633.52905 4278979850
-11.080225 77.075714 633.54297 4279045643
-10.717559 77.037476 633.55371 4278980106
-10.369939 77.078667 633.57745 4278914315
-10.007634 77.043198 633.60052 4278914314
-9.6601048 77.089439 633.64954 4279045643
-9.2984161 77.061111 633.70856 4278980106
-8.950943 77.110374 633.79492 4279045643
-8.5901031 77.082634 633.90039 4279045643
7.3701887 76.75753 631.01416 4278322435
7.7215295 76.681015 630.69696 4278716163
8.0674734 76.684891 630.31268 4278913796
8.4170189 76.602844 629.91956 4279702538
8.7631321 76.581352 629.4989 4280163090
9.112483 76.494545 629.16754 4280818961
9.4606066 76.503937 628.96252 4281740579
9.8122139 76.448288 628.83813 4286200869
10.155819 76.486115 628.80945 4294277452
10.516584 76.45311 628.85919 4294967295
10.861112 76.509285 628.9823 4294967295
11.227374 76.487663 629.16248 4294949603
11.578179 76.555023 629.39386 4288301107
11.943412 76.541084 629.6369 4282128647
12.30175 76.617836 629.89056 4279704594
12.660083 76.613914 630.11237 4279439112
13.016681 76.659439 630.2403 4278782469
13.374905 76.655678 630.50494 4279044358
-17.513517 77.508583 633.99896 4278848265
-17.134922 77.495094 633.95679 4278979337
-16.799906 77.497688 633.90686 4278848265
-16.420742 77.474693 633.84967 4278979849
-16.085852 77.477928 633.79248 4278979850
-15.706545 77.462509 633.73578 4279045642
-15.372279 77.468239 633.68872 4279176715
-14.993073 77.452095 633.64355 4279308300
-14.659698 77.459801 633.61334 4279243020
-14.280796 77.445572 633.59192 4279111435
-13.948161 77.454376 633.57782 4278980106
-13.569268 77.440598 633.57007 4278980106
-13.236897 77.448883 633.56494 4278914570
-12.858144 77.438538 633.56403 4278914058
-12.526305 77.450226 633.56903 4278979595
-12.147215 77.438339 633.56915 4278979594
-11.81574 77.449097 633.57208 4278979594
-11.436336 77.438652 633.57367 4279045643
-11.105257 77.449944 633.58337 4279045899
-10.725775 77.43824 633.59143 4279045643
-10.395125 77.44928 633.6131 4279110924
-10.015505 77.440742 633.63715 4278848778
-9.6856775 77.460838 633.69092 4278848778
-9.3062201 77.461243 633.75751 4278848778
-8.9770603 77.483681 633.85272 4278848777
-8.5977821 77.485489 633.97217 4278848521
7.3382158 77.118736 630.97693 4278453250
7.7199144 77.070724 630.66693 4278716163
8.036829 77.043091 630.32495 4278913028
8.4163408 76.996689 629.92847 4279241732
8.7316236 76.955482 629.52448 4279243017
9.1120529 76.888947 629.16681 4280359183
9.4286356 76.865585 628.95557 4282459681
9.805151 76.839081 628.81665 4285938710
10.13051 76.839073 628.77698 4288966978
10.506045 76.842239 628.8208 4294967276
10.837281 76.86702 628.9361 4294967295
11.218607 76.883064 629.12238 4291335321
11.549818 76.914513 629.35065 4282464041
11.942729 76.931099 629.6087 4281477127
12.266689 76.975159 629.84808 4280096786
12.659566 76.999283 630.07001 4279374090
12.982709 77.018501 630.20154 4279110665
13.37402 77.03791 630.42328 4279044615
13.732247 77.458961 633.7868 4278913542
-17.491673 77.852249 633.9895 4278848521
-17.125162 77.811935 633.94794 4278913801
-16.777777 77.841599 633.90063 4278848265
-16.411346 77.790359 633.84753 4278914057
-16.063578 77.823448 633.79425 4278979850
-15.69769 77.782707 633.74487 4278914057
-15.350088 77.816467 633.7027 4279045386
-14.984767 77.771675 633.66278 4279242508
-14.637382 77.807953 633.63593 4279242251
-14.272882 77.768036 633.61841 4279045642
-13.925553 77.803375 633.60699 4278980106
-13.56168 77.760857 633.60229 4278980363
-13.21429 77.798615 633.59845 4279045644
-12.85078 77.761436 633.59943 4278979851
-12.503459 77.800194 633.60541 4278979851
-12.140133 77.759598 633.60431 4279045387
-11.792478 77.797318 633.60516 4278979594
-11.429304 77.758339 633.6026 4279045642
-11.081484 77.799294 633.60938 4279176971
-10.718883 77.760384 633.61499 4279111180
-10.370957 77.798103 633.6358 4279045386
-10.008822 77.761223 633.66156 4278979594
-9.6612263 77.809158 633.72198 4279045386
-9.2998343 77.781441 633.79523 4278979850
-8.9525385 77.834267 633.90198 4278979849
7.3697886 77.461945 630.97198 4278453250
7.7210288 77.387505 630.6626 4278715907
8.0680714 77.390938 630.32874 4278847235
8.4177046 77.316238 629.9472 4279044099
8.7641058 77.299164 629.52869 4279241732
9.1128359 77.205818 629.16589 4279766793
9.4610815 77.205406 628.93268 4280424980
9.8120193 77.145706 628.78461 4282785564
10.155586 77.18206 628.73248 4282340627
10.515266 77.14959 628.76904 4291023764
10.859821 77.210403 628.88306 4294967295
11.225626 77.192741 629.06641 4286026344
11.576665 77.257301 629.30804 4279456285
11.942202 77.241158 629.56378 4281345562
12.300193 77.315102 629.80457 4279770389
12.658374 77.310997 630.02533 4279570702
13.015501 77.368202 630.16882 4279308045
13.372094 77.347557 630.3631 4279176200
13.758283 77.712372 633.02899 4278847749
-17.513351 78.217896 633.98358 4278848521
-17.134787 78.203606 633.94403 4278848264
-16.799999 78.206696 633.90118 4278979594
-16.420923 78.187485 633.85309 4278979850
-16.086359 78.194458 633.80731 4278914314
-15.707369 78.18132 633.76508 4278782985
-15.37332 78.186768 633.72968 4278979594
-14.994449 78.171402 633.69543 4279045130
-14.661088 78.179893 633.67236 4278979593
-14.282398 78.166077 633.65839 4278914314
-13.94974 78.173599 633.64935 4278914314
-13.571028 78.161392 633.64612 4278980108
-13.238642 78.171837 633.64264 4279111436
-12.859883 78.162117 633.64349 4278980108
-12.528029 78.171547 633.6474 4278914314
-12.148833 78.157959 633.64349 4279045386
-11.817232 78.168228 633.64008 4278979594
-11.437643 78.15889 633.63312 4278914315
-11.106396 78.170586 633.63666 4279045387
-10.726976 78.158424 633.64105 4279045642
-10.396072 78.168243 633.66339 4279045642
-10.016649 78.160912 633.69421 4278980363
-9.6868601 78.181442 633.76154 4279177484
-9.307642 78.181778 633.84558 4278914827
-8.9786243 78.206551 633.96173 4278980106
7.3373876 77.820518 630.92212 4278453250
7.7190108 77.771492 630.60992 4278715908
8.0363731 77.752045 630.32599 4278781699
8.4165535 77.704552 629.93188 4278847491
8.7322426 77.665176 629.53522 4278978820
9.1118937 77.595078 629.15564 4279111172
9.4288015 77.566307 628.91681 4279176203
9.8049173 77.537186 628.7533 4281277440
10.129796 77.536446 628.69269 4283451696
10.505284 77.539307 628.72247 4291218884
10.835734 77.564476 628.82861 4294967281
11.216993 77.581993 629.01831 4292388522
11.549021 77.613182 629.25818 4284961089
11.941304 77.631218 629.52936 4282922267
12.265657 77.673141 629.75513 4280162837
12.657795 77.696671 629.98218 4279504649
12.981549 77.726639 630.13153 4279373324
13.371565 77.731369 630.29395 4279241737
13.70924 78.036224 632.69128 4278847750
-17.491432 78.560577 633.97479 4279045130
-17.125132 78.517731 633.93646 4278848264
-16.777914 78.551659 633.89948 4278914058
-16.411808 78.507675 633.85699 4279111436
-16.064337 78.543396 633.81885 4278979851
-15.698829 78.500412 633.78357 4278848521
-15.351492 78.534996 633.75409 4278914314
-14.986391 78.491966 633.7243 4278979593
-14.639151 78.528183 633.70514 4278914056
-14.274723 78.487373 633.69226 4278848264
-13.927474 78.524048 633.68549 4278782984
-13.563451 78.483795 633.68195 4278848778
-13.216113 78.522209 633.67908 4278914315
-12.852492 78.483147 633.67865 4278914316
-12.505103 78.521019 633.68176 4278848522
-12.141615 78.479362 633.67493 4278848266
-11.793732 78.518097 633.66888 4278848521
-11.430442 78.480042 633.65796 4278979851
-11.082488 78.519058 633.65918 4278979852
-10.719792 78.47876 633.66248 4279111436
-10.371905 78.518242 633.68671 4279243020
-10.009877 78.482071 633.72089 4279375118
-9.662446 78.530479 633.79535 4279571985
-9.3012142 78.503258 633.88672 4279112204
7.3694429 78.165001 630.92719 4278453251
7.7199073 78.083542 630.56763 4278715908
8.0677242 78.086136 630.28223 4278781699
8.4173594 78.013344 629.91241 4278847235
8.7641153 78.001648 629.50415 4278847747
9.1125078 77.910995 629.13538 4279110147
9.4606733 77.907883 628.87372 4278522376
9.8110008 77.843933 628.70563 4280684804
10.161451 77.875336 628.63641 4283454244
10.513657 77.845375 628.6618 4293379983
10.867361 77.899506 628.77075 4294967272
11.223073 77.885742 628.9588 4294953178
11.581631 77.949066 629.21539 4290074964
11.940337 77.938484 629.4812 4283049752
12.298526 78.01162 629.70959 4279244816
12.656107 78.006165 629.92065 4279372551
13.01398 78.064583 630.07916 4279176714
13.369158 78.0373 630.21069 4279110665
13.752891 78.37384 632.61981 4278848006
-17.513273 78.927696 633.97321 4278914058
-17.134857 78.912537 633.93756 4278782728
