# .PCD v0.7 - Point Cloud Data file format
VERSION 0.7
FIELDS x y z rgb
SIZE 4 4 4 4
TYPE F F F U
COUNT 1 1 1 1
WIDTH 1176
HEIGHT 1
VIEWPOINT 0 0 0 1 0 0 0
POINTS 1176
DATA ascii
80.727402 24.390642 823.57208 4278387459
81.208893 24.356567 823.93854 4278387459
81.729141 24.418943 824.34381 4278387459
82.226501 24.386381 824.86609 4278387715
82.730888 24.439173 825.1026 4278387715
83.214317 24.402719 825.48578 4278387715
83.712914 24.444426 825.64691 4278387715
59.648075 25.001566 827.02924 4278387715
60.156788 24.936743 826.77759 4278453251
60.540012 24.989885 826.55139 4278387715
61.044476 24.925798 826.23627 4278387715
61.4119 24.968769 825.80823 4278387715
61.905956 24.896927 825.36285 4278387715
62.272327 24.93915 824.9353 4278453251
62.768642 24.870823 824.52936 4278453508
63.138092 24.915659 824.15149 4278519044
63.636986 24.84894 823.79236 4278453508
64.009491 24.895733 823.46912 4278453508
64.511574 24.830719 823.15308 4278519044
64.886917 24.879519 822.883 4278519300
65.393059 24.816412 822.61664 4278519300
65.77079 24.865965 822.38934 4278519300
66.280472 24.802925 822.17334 4278519300
66.660652 24.85228 821.98627 4278519301
67.173691 24.792349 821.81268 4278519301
67.556824 24.845095 821.67023 4278519557
68.073029 24.782749 821.53625 4278585094
68.458176 24.834171 821.42566 4278650886
68.977982 24.778595 821.33051 4278716679
69.364319 24.835316 821.24249 4278716936
69.885567 24.776335 821.16656 4278848521
70.27317 24.828224 821.09308 4278914828
70.795769 24.771605 821.03314 4279111952
71.1847 24.827 820.98004 4279374866
71.709053 24.768253 820.93542 4279375125
72.100304 24.822618 820.91284 4279571732
72.628967 24.768007 820.91425 4279308817
73.022942 24.826273 820.92731 4279177486
73.555939 24.772722 820.97345 4279045901
73.95311 24.830009 821.02484 4278914315
74.490395 24.776581 821.11163 4278782729
74.890335 24.835812 821.19855 4278585607
75.432304 24.783983 821.32074 4278585350
75.834839 24.843962 821.44507 4278519557
76.381104 24.79224 821.60303 4278519301
76.786194 24.851604 821.75818 4278519301
77.335648 24.800014 821.94006 4278453764
77.742599 24.86261 822.10944 4278453508
78.293617 24.813913 822.30524 4278453508
78.702728 24.87746 822.49432 4278453508
79.256973 24.828939 822.71423 4278453251
79.670464 24.892672 822.94824 4278387715
80.232277 24.843884 823.2356 4278387715
80.652969 24.908319 823.54578 4278387715
81.226562 24.864851 823.94232 4278387459
81.655373 24.933279 824.32678 4278387459
82.245636 24.895002 824.8772 4278387715
82.65892 24.959929 825.10443 4278387715
83.232513 24.913664 825.48279 4278387714
83.641182 24.976175 825.66119 4278387715
59.29726 25.386145 827.87482 4278453251
59.740688 25.42132 827.43427 4278387715
60.167694 25.366863 827.08124 4278453251
60.619469 25.404263 826.76666 4278387715
61.03471 25.339308 826.25885 4278387715
61.475796 25.372267 825.80688 4278387715
61.895493 25.311558 825.3786 4278387715
62.33707 25.346949 824.93713 4278453251
62.758308 25.288084 824.54559 4278453508
63.203323 25.322279 824.15857 4278519044
63.626865 25.264538 823.81177 4278453508
64.075096 25.302649 823.47791 4278453508
64.501007 25.246048 823.17163 4278519044
64.953125 25.285452 822.89075 4278519044
65.381248 25.230911 822.63019 4278519044
65.836845 25.270546 822.39044 4278453508
66.268196 25.21814 822.18036 4278519044
66.726463 25.257277 821.98187 4278519301
67.1605 25.204025 821.81104 4278519301
67.622345 25.248617 821.66278 4278519557
68.058983 25.199488 821.53046 4278585094
68.523911 25.242418 821.41968 4278650887
68.96389 25.19195 821.32697 4278716679
69.430893 25.236547 821.2406 4278716936
69.871735 25.188848 821.16803 4278848522
70.340294 25.234133 821.09521 4278980364
70.781982 25.186363 821.04004 4279112207
71.252449 25.231155 820.98767 4279309330
71.694885 25.182055 820.94537 4279375379
72.168686 25.228374 820.92377 4279440660
72.6147 25.183445 820.92554 4279309330
73.092026 25.232519 820.94037 4279177486
73.541725 25.186855 820.987 4278980364
74.022911 25.23439 821.03961 4278848779
74.475967 25.191992 821.12488 4278782729
74.961296 25.24135 821.2146 4278651143
75.416931 25.196583 821.33051 4278585350
75.905846 25.247461 821.45544 4278585094
76.364677 25.205076 821.60333 4278519301
76.856689 25.255871 821.75629 4278519301
77.318092 25.214796 821.92786 4278519301
77.81205 25.26903 822.10089 4278519045
78.275261 25.229301 822.28699 4278453508
78.772621 25.282547 822.49023 4278453508
79.23848 25.242821 822.70337 4278387715
79.741898 25.297846 822.9549 4278387715
80.214607 25.258369 823.23773 4278387715
80.726326 25.31451 823.56287 4278387715
81.209175 25.279589 823.94775 4278387715
81.729698 25.340761 824.35095 4278387459
82.225685 25.308519 824.86072 4278387458
82.731895 25.365189 825.11298 4278387715
83.210297 25.328398 825.44678 4278387715
83.711853 25.383411 825.63812 4278387715
59.306667 25.897655 827.85956 4278453251
59.681667 25.943159 827.49762 4278387715
60.182854 25.879419 827.1413 4278387715
60.560581 25.924505 826.83533 4278387715
61.049793 25.851646 826.31067 4278387715
61.415344 25.893909 825.85602 4278387715
61.909348 25.822245 825.40942 4278387715
62.274887 25.864319 824.97308 4278453251
62.770763 25.797207 824.55914 4278453507
63.140709 25.841429 824.18823 4278453508
63.639519 25.774227 823.82599 4278453508
64.012611 25.820354 823.51038 4278519044
64.514999 25.755684 823.19556 4278519044
64.89006 25.804276 822.92609 4278519044
65.396294 25.740416 822.6579 4278453508
65.773155 25.787952 822.42218 4278453508
66.282387 25.725166 822.20001 4278453508
66.661987 25.774317 822.00507 4278453764
67.174355 25.71385 821.82416 4278519301
67.557373 25.76597 821.67969 4278585093
68.072906 25.707277 821.54181 4278585094
68.45871 25.760695 821.43359 4278650886
68.978462 25.70056 821.34149 4278716679
69.365303 25.751881 821.25653 4278716936
69.886734 25.695028 821.18243 4278848521
70.274391 25.75021 821.11047 4278980364
70.797096 25.694061 821.05103 4279177743
71.186218 25.748528 821.00043 4279309329
71.71022 25.690207 820.9519 4279375379
72.101601 25.745392 820.93011 4279440658
72.630081 25.692074 820.93005 4279309072
73.024338 25.749243 820.94537 4279111949
73.557541 25.694471 820.99384 4279045900
73.954933 25.75123 821.04785 4278914314
74.492226 25.698784 821.13629 4278782728
74.893082 25.757544 821.23004 4278651143
75.434296 25.70438 821.34845 4278585350
75.837181 25.763189 821.47156 4278585094
76.382301 25.714479 821.6228 4278519557
76.787231 25.77491 821.76874 4278519301
77.33567 25.72368 821.94507 4278519301
77.742249 25.785429 822.10754 4278519301
78.292114 25.736576 822.29492 4278453508
78.701965 25.799105 822.48907 4278453508
79.256035 25.752337 822.70959 4278387715
79.670189 25.817087 822.94995 4278387715
80.233078 25.769522 823.2489 4278387715
80.654007 25.831272 823.5589 4278387715
81.229012 25.788012 823.97162 4278387459
81.657768 25.859262 824.35236 4278387459
82.24633 25.820984 824.88757 4278387458
82.660271 25.884039 825.12195 4278387459
83.229446 25.838936 825.45538 4278387715
83.638565 25.902107 825.63776 4278387715
59.294739 26.314402 827.84247 4278453251
59.745834 26.351616 827.50714 4278387715
60.173069 26.296144 827.15808 4278387715
60.624714 26.33346 826.84076 4278387715
61.040173 26.26672 826.33691 4278387715
61.479111 26.297901 825.85596 4278387715
61.89941 26.236797 825.43469 4278453251
62.339771 26.271969 824.97955 4278453507
62.76099 26.214657 824.58411 4278453508
63.205952 26.249174 824.19879 4278453508
63.629349 26.190741 823.84668 4278453508
64.078438 26.227972 823.52148 4278453508
64.504105 26.169477 823.21295 4278519044
64.956329 26.209215 822.93542 4278453508
65.384773 26.156036 822.67511 4278519044
65.839653 26.194382 822.42944 4278519300
66.271049 26.138435 822.21661 4278519300
66.728508 26.179699 822.01129 4278519300
67.162613 26.12863 821.83698 4278519301
67.624191 26.17041 821.68652 4278585093
68.060555 26.12088 821.54999 4278585094
68.525467 26.166973 821.44037 4278650886
68.965355 26.116116 821.34705 4278651143
69.432579 26.158308 821.26331 4278716936
69.873238 26.108318 821.19067 4278848521
70.342239 26.154314 821.12 4278980107
70.783882 26.107199 821.06592 4279111950
71.255188 26.152693 821.0191 4279374608
71.697426 26.103802 820.97681 4279309329
72.171722 26.152111 820.95984 4279309072
72.617752 26.107733 820.96179 4279243279
73.095375 26.155443 820.98138 4279242765
73.545151 26.109209 821.02838 4279045900
74.026367 26.15761 821.08252 4278979594
74.479477 26.113348 821.16559 4278782473
74.964973 26.163626 821.26111 4278651143
75.420563 26.119053 821.37128 4278585350
75.909019 26.169436 821.49548 4278585094
76.36747 26.127495 821.63873 4278519557
76.859062 26.180088 821.78748 4278519301
77.320129 26.138786 821.95685 4278519301
77.814354 26.192783 822.1275 4278519301
78.276505 26.151646 822.30792 4278453508
78.775131 26.205488 822.51495 4278453508
79.240761 26.165493 822.72864 4278453507
79.744644 26.222416 822.98297 4278453251
80.217834 26.184805 823.27173 4278387715
80.729721 26.240763 823.5976 4278387715
81.213387 26.206005 823.99249 4278387459
81.734642 26.268148 824.4021 4278387459
82.228828 26.236231 824.89813 4278387459
82.738197 26.291597 825.17554 4278387715
83.212601 26.255342 825.47321 4278387715
83.716087 26.310089 825.68134 4278387715
59.304241 26.82523 827.82593 4278453507
59.686131 26.873169 827.56024 4278387715
60.187412 26.806581 827.20837 4278387714
60.565575 26.853159 826.90503 4278387715
61.055084 26.780046 826.38715 4278387715
61.418327 26.818857 825.89825 4278387715
61.91328 26.748463 825.46027 4278453251
62.277565 26.789801 825.00812 4278453507
62.773746 26.723482 824.59625 4278453508
63.143196 26.767466 824.22394 4278453508
63.641937 26.700771 823.85956 4278453508
64.01548 26.747805 823.55127 4278453508
64.517639 26.681995 823.23456 4278519044
64.893227 26.72769 822.97015 4278519044
65.399193 26.663797 822.70306 4278519044
65.77636 26.710979 822.46783 4278519300
66.285652 26.646767 822.24542 4278584837
66.664993 26.695623 822.0484 4278519301
67.177788 26.636692 821.86823 4278585093
67.560493 26.688049 821.72186 4278585093
68.075943 26.630787 821.57971 4278585094
68.461494 26.685797 821.46954 4278585350
68.980827 26.625452 821.37146 4278651143
69.367584 26.674547 821.28546 4278716936
69.888763 26.616432 821.20868 4278848521
70.276459 26.671129 821.13708 4278914571
70.7995 26.614542 821.08087 4279046158
71.189125 26.66785 821.03705 4279243536
71.713882 26.612131 820.99609 4279178257
72.105736 26.669506 820.98053 4279177999
72.634857 26.617035 820.98639 4279177486
73.029732 26.672722 821.00842 4279111437
73.563156 26.617218 821.05872 4279045643
73.960701 26.673323 821.11322 4278914058
74.497864 26.621492 821.19952 4278782472
74.899063 26.681211 821.29718 4278651143
75.439865 26.629177 821.41284 4278650886
75.842842 26.687063 821.5343 4278585094
76.387527 26.637379 821.68372 4278585093
76.792709 26.698019 821.8291 4278519557
77.34079 26.649712 822.00458 4278519301
77.747429 26.711493 822.1662 4278519301
78.296944 26.661901 822.35022 4278453508
78.707115 26.723753 822.54645 4278453508
79.261436 26.67631 822.76947 4278453507
79.675919 26.739342 823.01227 4278387715
80.238998 26.692995 823.31464 4278387715
80.660316 26.759171 823.6261 4278387715
81.235329 26.718067 824.03851 4278387715
81.66468 26.787056 824.42578 4278387459
82.250778 26.7488 824.9364 4278387458
82.667114 26.811697 825.19427 4278387715
83.234344 26.766546 825.50702 4278387715
83.644386 26.830536 825.6991 4278387715
59.291912 27.240564 827.8056 4278453251
59.749298 27.281275 827.55676 4278387715
60.175751 27.224192 827.19531 4278387715
60.629101 27.263264 826.90363 4278387715
61.045727 27.196098 826.41156 4278387715
61.482735 27.226357 825.90851 4278387715
61.904339 27.165003 825.50366 4278453251
62.343975 27.198236 825.03998 4278453507
62.765663 27.139481 824.65057 4278453508
63.210602 27.175259 824.26501 4278453508
63.634129 27.116934 823.91156 4278453508
64.083481 27.154886 823.59119 4278453507
64.509041 27.097902 823.28009 4278519044
64.96125 27.135984 823.00415 4278453508
65.390221 27.079252 822.74481 4278519300
65.844666 27.117649 822.50116 4278519301
66.276436 27.059855 822.28766 4278519301
66.733856 27.10087 822.08417 4278519301
67.168098 27.051697 821.9104 4278585093
67.629936 27.096462 821.76025 4278519557
68.066071 27.046652 821.61951 4278585094
68.530762 27.093315 821.50635 4278585350
68.969994 27.041075 821.40546 4278651143
69.437065 27.080032 821.31854 4278716936
69.877647 27.030609 821.24377 4278848522
70.346588 27.078495 821.17407 4278980108
70.788773 27.028124 821.12347 4279111950
71.260475 27.07465 821.08527 4279243537
71.704185 27.029867 821.0531 4279178257
72.178543 27.078564 821.0426 4279309072
72.625671 27.032059 821.05267 4279111950
73.103577 27.080042 821.07831 4279045644
73.553772 27.0333 821.12683 4278979851
74.035011 27.080912 821.18134 4278848266
74.48793 27.034834 821.2608 4278782472
74.973167 27.087275 821.35693 4278651143
75.429077 27.044085 821.46362 4278650887
75.916626 27.094475 821.58301 4278585350
76.375397 27.05348 821.72351 4278585094
76.866577 27.107836 821.87073 4278585093
77.327415 27.065371 822.03711 4278519301
77.822296 27.118801 822.20819 4278519301
78.283913 27.077215 822.38831 4278453508
78.783409 27.131063 822.59967 4278453508
79.249283 27.090977 822.81836 4278387971
79.753754 27.146669 823.07904 4278387715
80.227242 27.108265 823.37231 4278387715
80.739601 27.167997 823.7002 4278387715
81.222824 27.134987 824.0907 4278387715
81.744194 27.198465 824.50159 4278387715
82.235199 27.168797 824.96149 4278387459
82.745422 27.219604 825.25116 4278387715
83.218742 27.182114 825.53589 4278387715
83.721359 27.237862 825.73553 4278387715
59.30513 27.754419 827.83887 4278453251
59.690903 27.803526 827.62952 4278387715
60.191292 27.737411 827.25885 4278387715
60.570587 27.782171 826.97791 4278387715
61.062214 27.710373 826.4826 4278387715
61.424187 27.749222 825.9801 4278387715
61.920895 27.681179 825.56635 4278387715
62.285454 27.72065 825.11273 4278453507
62.782116 27.651419 824.70947 4278453508
63.151691 27.693947 824.33832 4278453508
63.650219 27.627575 823.96759 4278453508
64.023727 27.674421 823.66125 4278453508
64.525467 27.608608 823.33521 4278453508
64.900879 27.652838 823.06927 4278453508
65.40699 27.588152 822.80109 4278519300
65.784218 27.636559 822.56647 4278519301
66.293854 27.573639 822.34656 4278519301
66.673309 27.620762 822.15295 4278585093
67.186218 27.561388 821.9743 4278585093
67.569328 27.614763 821.82971 4278519557
68.084373 27.556923 821.68292 4278585094
68.469826 27.609875 821.57068 4278650887
68.988525 27.55031 821.46423 4278716679
69.375298 27.597782 821.37732 4278782472
69.896744 27.540142 821.30151 4278914058
70.284698 27.596504 821.23431 4279045644
70.80835 27.540724 821.18536 4279242767
71.199142 27.595097 821.1532 4279505938
71.72506 27.540432 821.12628 4279440403
72.11763 27.595963 821.11823 4279374608
72.647789 27.54347 821.13416 4279242766
73.0429 27.599113 821.15863 4279045644
73.576607 27.542948 821.21094 4278979595
73.973907 27.60088 821.26202 4278913801
74.510925 27.549551 821.34418 4278848008
74.911903 27.604595 821.43884 4278716679
75.452766 27.552891 821.5517 4278650887
75.855423 27.613924 821.66876 4278650886
76.400154 27.565666 821.81702 4278585094
76.805344 27.626947 821.96185 4278519557
77.353561 27.578955 822.1366 4278584837
77.759941 27.638256 822.2973 4278519300
78.309898 27.587206 822.48492 4278519044
78.720055 27.648237 822.68341 4278453508
79.275063 27.60268 822.91302 4278453252
79.690247 27.66642 823.16229 4278387715
80.253647 27.620378 823.46832 4278387715
80.67569 27.689011 823.78632 4278387715
81.249733 27.651127 824.1875 4278387715
81.680092 27.722511 824.58398 4278387715
82.245766 27.678663 824.88855 4278387459
82.661194 27.734081 825.13959 4278387715
83.223465 27.687849 825.40131 4278387715
59.293877 28.143429 827.83557 4278453251
59.755806 28.2131 827.64966 4278387715
60.182484 28.150156 827.28467 4278387715
60.637665 28.192152 827.02386 4278387715
61.056252 28.132719 826.55579 4278387715
61.493324 28.161253 826.05194 4278387715
61.916328 28.10033 825.66608 4278387715
62.355892 28.133139 825.20032 4278453507
62.778236 28.069565 824.81781 4278453508
63.222996 28.102922 824.42822 4278453508
63.645878 28.043695 824.06763 4278453508
64.095314 28.083458 823.74603 4278453508
64.51992 28.024645 823.42615 4278453508
64.972267 28.061892 823.14728 4278453508
65.401192 28.005049 822.88654 4278519300
65.855446 28.044905 822.64093 4278519301
66.287193 27.98893 822.42828 4278519301
66.745148 28.030855 822.22656 4278585093
67.17939 27.979355 822.05249 4278585093
67.641396 28.023849 821.90173 4278585093
68.077431 27.971407 821.75903 4278585094
68.542107 28.014418 821.64447 4278585350
68.981125 27.963484 821.54114 4278651143
69.448532 28.007393 821.45496 4278782472
69.889702 27.957026 821.38568 4278848265
70.35955 28.006411 821.32538 4279045387
70.802673 27.958941 821.28357 4279177230
71.275642 28.005539 821.25806 4279374353
71.720909 27.962294 821.23969 4279243279
72.19558 28.008568 821.23541 4279177230
72.643684 27.961363 821.25458 4278980107
73.121628 28.008209 821.27753 4278914058
73.5718 27.958445 821.32684 4278848265
74.052391 28.010218 821.37378 4278848008
74.504959 27.965923 821.44824 4278782216
74.989632 28.015545 821.53778 4278650886
75.445854 27.970779 821.64337 4278585094
75.933136 28.021929 821.76031 4278585094
76.392532 27.980993 821.90381 4278519557
76.884125 28.03508 822.05457 4278519301
77.345436 27.994535 822.22681 4278519300
77.840179 28.048887 822.39929 4278519044
78.302979 28.003653 822.58832 4278519044
78.802361 28.057323 822.80072 4278453508
79.269478 28.01988 823.02979 4278453251
79.774895 28.07851 823.29688 4278387715
80.248833 28.040333 823.59418 4278387715
80.762573 28.10265 823.93634 4278387715
81.243469 28.069698 824.3006 4278387715
81.766113 28.135738 824.72571 4278387715
82.236549 28.094315 824.98022 4278387715
82.743553 28.145409 825.23676 4278387715
83.213722 28.104738 825.49127 4278387715
59.686047 28.729572 827.56592 4278387715
60.188263 28.662516 827.21332 4278387715
60.570496 28.710083 826.98035 4278387459
61.076893 28.645828 826.67999 4278387715
61.440273 28.684254 826.19934 4278387715
61.938057 28.616631 825.79797 4278387715
62.303333 28.65811 825.34973 4278453507
62.80003 28.586536 824.94623 4278453508
63.169014 28.624899 824.56714 4278453508
63.66695 28.557909 824.18689 4278453508
64.040092 28.603495 823.87543 4278453508
64.541328 28.537167 823.54132 4278519044
64.916496 28.583097 823.26971 4278453508
65.422485 28.520769 822.99902 4278519300
65.799461 28.565853 822.76056 4278519301
66.309418 28.502491 822.53973 4278519301
66.688858 28.550478 822.34674 4278585093
67.201866 28.491373 822.16345 4278584837
67.584755 28.542732 822.01715 4278519301
68.100212 28.48197 821.8667 4278519301
68.485283 28.531374 821.75415 4278585093
69.004028 28.474592 821.64526 4278650630
69.390938 28.528156 821.56097 4278651143
69.913414 28.472027 821.49286 4278782472
70.30265 28.526491 821.44171 4278913801
70.827827 28.475258 821.40454 4278979594
71.219872 28.530746 821.38934 4278979850
71.747604 28.47311 821.37775 4278914314
72.140739 28.527914 821.37964 4278782985
72.672058 28.472719 821.40363 4278782471
73.06649 28.524988 821.4234 4278716679
73.600433 28.47154 821.47064 4278716679
73.996216 28.530468 821.51062 4278716422
74.53318 28.480446 821.58362 4278650630
74.932503 28.536133 821.66681 4278585093
75.473457 28.483829 821.7749 4278519301
75.875748 28.542027 821.88837 4278519301
76.421043 28.493109 822.04102 4278453764
76.826797 28.554569 822.18982 4278453508
77.37574 28.508326 822.37299 4278453508
77.782425 28.56982 822.53455 4278453508
78.333946 28.520147 822.73651 4278453508
78.743912 28.578911 822.9339 4278453507
79.300514 28.532963 823.17664 4278453251
79.716385 28.598356 823.43262 4278387715
80.280678 28.555815 823.74426 4278387715
80.704918 28.625216 824.08502 4278387715
81.275406 28.587154 824.44806 4278387715
81.707542 28.661705 824.8645 4278387715
82.266846 28.611315 825.10364 4278387459
82.679535 28.665962 825.3269 4278387715
83.241508 28.616644 825.57959 4278453251
59.756836 29.141785 827.66821 4278387715
60.186188 29.080196 827.33832 4278387459
60.644417 29.124105 827.11542 4278387458
61.075603 29.065189 826.82288 4278387459
61.515369 29.096943 826.34821 4278387715
61.938473 29.036686 825.96301 4278387715
62.379269 29.072243 825.50757 4278387715
62.801102 29.008654 825.12079 4278453251
63.245903 29.039196 824.72516 4278453507
63.667957 28.976513 824.35791 4278453507
64.117126 29.015509 824.02905 4278453507
64.54174 28.957376 823.70508 4278453508
64.99369 28.996273 823.41833 4278453508
65.42234 28.938715 823.15466 4278453508
65.876511 28.97838 822.9024 4278519300
66.307854 28.923664 822.68707 4278519300
66.766319 28.963392 822.4837 4278519301
67.19957 28.907248 822.30115 4278519300
67.661469 28.951424 822.14417 4278453508
68.097038 28.898735 821.99591 4278453764
68.561745 28.942738 821.87799 4278519301
69.000679 28.892294 821.7738 4278519301
69.468529 28.937471 821.68823 4278585093
69.910522 28.889767 821.6275 4278585093
70.382141 28.941061 821.58331 4278650886
70.826286 28.893921 821.55255 4278650886
71.300537 28.940228 821.54303 4278650886
71.747231 28.895052 821.53754 4278650886
72.222504 28.940536 821.54224 4278650885
72.671555 28.890007 821.56653 4278585093
73.149109 28.93523 821.58539 4278585092
73.599182 28.888475 821.62878 4278584837
74.079208 28.943001 821.66687 4278584836
74.531067 28.898159 821.73486 4278519300
75.015045 28.946287 821.81348 4278453508
75.470924 28.901573 821.9173 4278453508
75.958275 28.954185 822.03125 4278453507
76.418282 28.912291 822.17804 4278453507
76.910141 28.967316 822.33215 4278453507
77.372169 28.926395 822.50842 4278453251
77.866539 28.979895 822.67834 4278387715
78.330582 28.936661 822.87775 4278453251
78.829674 28.992342 823.08813 4278387715
79.297913 28.953545 823.3291 4278387715
79.804695 29.012157 823.60663 4278387715
80.279572 28.974701 823.91223 4278387715
80.795906 29.039074 824.2793 4278387715
81.273262 29.007618 824.60547 4278387459
81.779816 29.065382 824.8689 4278387459
82.241913 29.021891 825.0387 4278387714
82.740303 29.069408 825.20831 4278387715
59.707466 29.668179 827.8689 4278387715
60.587894 29.646708 827.21545 4278321922
61.092918 29.580364 826.89435 4278387458
61.457481 29.615524 826.43225 4278387459
61.965778 29.555443 826.16992 4278387459
62.333088 29.59997 825.74866 4278387715
62.829506 29.528526 825.33795 4278387715
63.19846 29.566101 824.95325 4278453251
63.696526 29.496708 824.56879 4278453251
64.068863 29.540184 824.24445 4278453251
64.570305 29.475325 823.90741 4278453507
64.94442 29.520725 823.62347 4278453508
65.450279 29.455595 823.34552 4278453508
65.826408 29.49873 823.09668 4278453508
66.335709 29.437485 822.86646 4278453508
66.715195 29.487488 822.66937 4278453508
67.226845 29.426369 822.47015 4278453507
67.609596 29.473888 822.31775 4278453507
68.124535 29.412586 822.15948 4278387971
68.509758 29.463148 822.04688 4278453507
69.028976 29.406582 821.93964 4278453507
69.416512 29.459364 821.85992 4278453508
69.939896 29.405155 821.80042 4278453764
70.330727 29.460459 821.76666 4278453508
70.856728 29.409304 821.73486 4278388228
71.249741 29.465517 821.7309 4278387972
71.778175 29.407858 821.72345 4278388228
72.171829 29.459538 821.73004 4278453508
72.70314 29.404037 821.75195 4278453764
73.09716 29.457542 821.76489 4278453508
73.630516 29.405275 821.80396 4278453763
74.025887 29.463671 821.83893 4278453507
74.562592 29.413773 821.90564 4278453507
74.961189 29.467316 821.97955 4278453507
75.502357 29.414822 822.08582 4278453507
75.904373 29.474943 822.1969 4278387971
76.450249 29.427633 822.35229 4278453507
76.856026 29.488483 822.50012 4278387971
77.405434 29.441952 822.68481 4278387715
77.811844 29.501581 822.84424 4278387715
78.36441 29.453579 823.05438 4278453508
78.774727 29.51429 823.25427 4278453251
79.332611 29.469015 823.51025 4278387715
79.750221 29.535231 823.78149 4278387715
80.316635 29.496012 824.11255 4278387459
80.743958 29.56624 824.48187 4278387459
81.310814 29.525627 824.80762 4278387458
81.726341 29.593386 825.0575 4278387458
82.278381 29.540476 825.22144 4278387458
82.682587 29.589243 825.3595 4278387714
60.18911 30.010939 827.37976 4278387715
60.651836 30.054193 827.20959 4278387458
61.089352 29.99733 827.01062 4278387458
61.548115 30.039654 826.78625 4278387458
61.970734 29.979143 826.39551 4278387458
62.414829 30.015295 825.9809 4278387458
62.83569 29.951674 825.57709 4278387715
63.280346 29.983597 825.17517 4278387715
63.702328 29.920561 824.80438 4278387715
64.150764 29.957506 824.46155 4278453251
64.575432 29.897495 824.13733 4278453251
65.026855 29.934549 823.8371 4278453251
65.454536 29.874203 823.56726 4278453507
65.908661 29.913219 823.30249 4278453507
66.338844 29.860188 823.07697 4278453507
66.797318 29.904144 822.8667 4278453251
67.229149 29.847162 822.66547 4278453251
67.690292 29.887642 822.49799 4278387715
68.125816 29.833244 822.34003 4278387715
68.58989 29.87612 822.2182 4278387715
69.029449 29.824797 822.11322 4278387715
69.497398 29.872108 822.02942 4278387715
69.940063 29.823856 821.97308 4278453251
70.413307 29.873976 821.94391 4278453506
70.857536 29.8267 821.91333 4278453251
71.333015 29.875296 821.91064 4278453507
71.779297 29.827028 821.90289 4278453507
72.255386 29.870947 821.91016 4278453507
72.70372 29.823751 821.92737 4278453507
73.181015 29.872105 821.93878 4278453507
73.630318 29.822849 821.97284 4278453507
74.110466 29.876196 822.00989 4278453507
74.562134 29.831741 822.07416 4278453507
75.046059 29.879524 822.14874 4278453507
75.501541 29.835007 822.25165 4278453507
75.989655 29.88958 822.36755 4278453507
76.44957 29.846357 822.51611 4278453507
76.941856 29.900568 822.67023 4278453507
77.403778 29.860941 822.84534 4278453251
77.897949 29.914505 823.01294 4278387715
78.362732 29.87088 823.21771 4278387715
78.862389 29.928438 823.42993 4278387715
79.331497 29.890675 823.68091 4278387715
79.840202 29.951212 823.97351 4278387715
80.316544 29.916897 824.29443 4278387715
80.836334 29.982943 824.69275 4278387459
81.301117 29.945019 824.89044 4278387458
81.807297 29.999191 825.14905 4278387458
82.268623 29.951281 825.31219 4278387458
60.597904 30.577429 827.34399 4278387459
61.111122 30.516726 827.14062 4278387458
61.495747 30.561045 826.94543 4278321922
62.002831 30.500248 826.66388 4278321922
62.372551 30.540901 826.2749 4278321922
62.868462 30.472183 825.84961 4278387458
63.237087 30.512302 825.45856 4278387715
63.735531 30.44297 825.07513 4278387715
64.106918 30.484653 824.73395 4278387715
64.608505 30.41785 824.39801 4278387715
64.981903 30.460781 824.10175 4278387715
65.487381 30.395912 823.81409 4278387715
65.862816 30.439449 823.55536 4278453251
66.371574 30.378471 823.31097 4278387715
66.750183 30.428347 823.10339 4278387715
67.260689 30.365627 822.88373 4278387715
67.642021 30.411505 822.71503 4278387715
68.156616 30.350542 822.54468 4278387715
68.541031 30.398853 822.42328 4278387715
69.060303 30.341606 822.31122 4278387715
69.447578 30.397324 822.22821 4278387715
69.970879 30.341242 822.16626 4278387715
70.36248 30.392607 822.13885 4278387715
70.888237 30.341604 822.10211 4278387971
71.281288 30.396273 822.09534 4278387715
71.809387 30.338854 822.07983 4278387971
72.203064 30.391834 822.08459 4278453508
72.733528 30.336603 822.09546 4278453508
73.127319 30.391306 822.10406 4278453508
73.660454 30.340279 822.13519 4278453508
74.056267 30.394197 822.17621 4278453508
74.593384 30.344099 822.2431 4278453508
74.992096 30.404154 822.31958 4278453507
75.533859 30.353893 822.42816 4278453508
75.936081 30.410179 822.54352 4278453508
76.482452 30.362722 822.6994 4278453508
76.887985 30.423931 822.84485 4278453508
77.436989 30.376368 823.02289 4278387715
77.843613 30.436565 823.18341 4278387715
78.396591 30.391594 823.3949 4278387715
78.807945 30.452736 823.60284 4278387715
79.367302 30.406887 823.87146 4278387715
79.786896 30.474987 824.1618 4278387715
80.356209 30.438351 824.51831 4278387715
80.786156 30.508234 824.91345 4278387459
81.343369 30.463709 825.14124 4278387458
81.759689 30.527786 825.39874 4278387458
82.312912 30.472906 825.57483 4278387458
61.106403 30.930573 827.24084 4278387458
61.567875 30.976412 827.04968 4278387458
62.000702 30.920412 826.7934 4278387458
62.457283 30.958529 826.54468 4278321922
62.877491 30.895674 826.12659 4278387458
63.321152 30.932652 825.71118 4278387458
63.743473 30.868914 825.34027 4278387715
64.190475 30.899977 824.97296 4278387715
64.615501 30.839788 824.64764 4278387715
65.065895 30.878448 824.33093 4278387715
65.492905 30.818035 824.04932 4278387715
65.9468 30.858036 823.7771 4278387715
66.37606 30.80209 823.53516 4278387715
66.833954 30.84234 823.31732 4278387715
67.264664 30.78446 823.09888 4278387715
67.724846 30.826927 822.91632 4278387715
68.159584 30.771952 822.74786 4278453251
68.623222 30.814495 822.61322 4278453251
69.06208 30.763426 822.50024 4278453251
69.529503 30.810617 822.40802 4278453251
69.971405 30.759789 822.34186 4278453251
70.44458 30.808941 822.31018 4278387715
70.88797 30.758413 822.26807 4278453251
71.362511 30.804331 822.25476 4278453507
71.808075 30.754478 822.23547 4278453508
72.283859 30.802359 822.23749 4278453508
72.731606 30.752068 822.24335 4278453508
73.208595 30.802353 822.25354 4278519300
73.658119 30.757359 822.28381 4278519300
74.139496 30.808537 822.33203 4278519300
74.591743 30.762926 822.401 4278453764
75.076637 30.816338 822.48364 4278453764
75.532562 30.773054 822.59015 4278453508
76.021423 30.825806 822.71136 4278453508
76.48114 30.783777 822.85822 4278453508
76.973175 30.838572 823.00732 4278453508
77.434181 30.793812 823.17163 4278387715
77.929047 30.848288 823.34198 4278387715
78.393562 30.809013 823.54419 4278387715
78.894463 30.868725 823.76752 4278387715
79.364967 30.831537 824.02942 4278387715
79.875351 30.891165 824.33893 4278387715
80.354637 30.855463 824.68567 4278387458
80.875999 30.923151 825.09912 4278387458
81.343941 30.887148 825.32648 4278387458
81.850838 30.937338 825.59192 4278387458
82.314232 30.89267 825.77203 4278387458
61.140598 31.459848 827.54169 4278387458
61.525848 31.503105 827.34949 4278387458
62.033806 31.443712 827.08044 4278387458
62.414852 31.486599 826.83771 4278387458
62.909695 31.417513 826.39368 4278387458
63.277523 31.458868 825.98718 4278387459
63.775608 31.389015 825.59412 4278387715
64.145424 31.428234 825.22986 4278387715
64.646614 31.362686 824.88483 4278387715
65.019218 31.403641 824.57373 4278387715
65.523842 31.3372 824.27417 4278387715
65.899559 31.381456 824.01184 4278387715
66.40741 31.320444 823.75562 4278387715
66.786026 31.366636 823.54358 4278453251
67.295807 31.304066 823.31372 4278453251
67.676071 31.349817 823.13116 4278453251
68.190125 31.288975 822.95172 4278453251
68.57312 31.339211 822.8139 4278453251
69.091682 31.283197 822.68817 4278453507
69.477959 31.334183 822.59241 4278453508
70.000175 31.276083 822.51398 4278453508
70.390854 31.32671 822.47437 4278387972
70.915367 31.269968 822.42291 4278387972
71.307175 31.320133 822.39874 4278453508
71.83445 31.266502 822.37244 4278453764
72.227585 31.3225 822.36823 4278453765
72.757072 31.268686 822.36963 4278454021
73.151527 31.324871 822.3808 4278519557
73.6847 31.273998 822.41431 4278519557
74.082466 31.327976 822.4696 4278519301
74.620193 31.276548 822.54565 4278453764
75.020546 31.335794 822.63281 4278519300
75.56266 31.289186 822.74841 4278453764
75.965698 31.34898 822.86707 4278453508
76.511383 31.300959 823.01819 4278453508
76.91674 31.359697 823.15717 4278453508
77.464279 31.310816 823.31964 4278453508
77.871956 31.37042 823.48499 4278387715
78.424133 31.325794 823.68811 4278387715
78.836906 31.38903 823.90637 4278453251
79.397362 31.347729 824.18408 4278387715
79.817795 31.413416 824.48206 4278387715
80.390099 31.374182 824.86859 4278387458
80.818947 31.444162 825.25018 4278387458
81.380493 31.403709 825.51727 4278387458
81.794998 31.460356 825.75848 4278387459
82.350143 31.412601 825.94928 4278387714
61.150337 31.885231 827.83307 4278387458
61.611195 31.926846 827.62994 4278321922
62.043507 31.868736 827.36523 4278387458
62.499489 31.90559 827.10406 4278387458
62.918442 31.839773 826.66522 4278387459
63.360924 31.877298 826.23169 4278387458
63.782383 31.813431 825.84393 4278387459
64.227188 31.845457 825.44702 4278387459
64.651199 31.783482 825.10535 4278387715
65.100014 31.820538 824.76611 4278387715
65.526031 31.758188 824.46924 4278387715
65.979858 31.796877 824.19165 4278453251
66.408485 31.739489 823.93701 4278453251
66.865982 31.781418 823.716 4278453251
67.296532 31.724264 823.4928 4278453508
67.756264 31.766216 823.3017 4278453508
68.190834 31.709625 823.13098 4278453508
68.653793 31.752745 822.98199 4278453508
69.091782 31.702684 822.85773 4278453508
69.558167 31.74999 822.75293 4278453508
69.9991 31.695761 822.66998 4278453508
70.470161 31.739208 822.61676 4278519301
70.912506 31.682735 822.55701 4278519301
71.385086 31.730085 822.51862 4278519301
71.82972 31.682837 822.48773 4278519558
72.304482 31.732349 822.47369 4278585350
72.751488 31.682644 822.4715 4278585350
73.228638 31.736919 822.4826 4278585350
73.679016 31.690083 822.52148 4278585350
74.161858 31.739672 822.58582 4278585350
74.615799 31.69442 822.66736 4278519557
75.101944 31.749279 822.76257 4278519301
75.558846 31.706987 822.87872 4278519300
76.048454 31.76289 823.00397 4278453508
76.507553 31.719763 823.14679 4278453508
76.999298 31.770248 823.28699 4278453508
77.458809 31.724871 823.43616 4278453508
77.954391 31.784771 823.612 4278453251
78.418114 31.746803 823.80359 4278453251
78.919983 31.804123 824.03735 4278387715
79.391563 31.764849 824.30463 4278387715
79.902008 31.826982 824.61719 4278387459
80.384735 31.792671 824.995 4278387459
80.904343 31.85681 825.38818 4278387459
81.376732 31.821972 825.66364 4278387459
81.882607 31.876303 825.91376 4278387459
82.348618 31.829824 826.11548 4278387458
61.183346 32.410648 828.1228 4278387458
61.567627 32.456352 827.909 4278321922
62.075043 32.392139 827.633 4278387458
62.453972 32.435432 827.35663 4278387458
62.946682 32.363014 826.88116 4278387458
63.312653 32.401188 826.44757 4278387458
63.808746 32.3321 826.02484 4278387459
64.176704 32.369968 825.63641 4278387459
64.676613 32.301128 825.26935 4278387715
65.047974 32.340786 824.93927 4278387715
65.551857 32.275909 824.62714 4278453251
65.927269 32.320004 824.35925 4278453507
66.434517 32.257668 824.09662 4278453507
66.813461 32.303448 823.88293 4278453508
67.323158 32.240944 823.65424 4278453508
67.703453 32.28722 823.46771 4278453508
68.217323 32.227062 823.29047 4278453508
68.600159 32.2757 823.14154 4278519044
69.117653 32.220043 823.00604 4278519044
69.503128 32.271049 822.8974 4278519301
70.024269 32.210732 822.80389 4278519301
70.413116 32.257488 822.73993 4278519558
70.93618 32.198555 822.67084 4278585350
71.326035 32.247334 822.62177 4278585351
71.852242 32.194736 822.58325 4278651144
72.244171 32.251015 822.56293 4278716936
72.773224 32.197281 822.55658 4278651400
73.167709 32.253014 822.57025 4278651400
73.702209 32.203548 822.61346 4278651144
74.101097 32.259182 822.68048 4278651143
74.639847 32.208618 822.76782 4278585350
75.041542 32.26886 822.86584 4278519557
75.584023 32.224083 822.98822 4278519301
75.987808 32.282867 823.11084 4278453764
76.532509 32.232044 823.25287 4278453508
76.937737 32.28949 823.38672 4278453508
77.484337 32.241688 823.53638 4278453508
77.892723 32.303612 823.70685 4278453251
78.444099 32.26096 823.90131 4278453251
78.857582 32.324677 824.12488 4278387715
79.418564 32.282166 824.40509 4278387715
79.838715 32.346027 824.70117 4278387459
80.413132 32.306187 825.10669 4278387459
80.840546 32.373669 825.47455 4278387459
81.407227 32.335991 825.78918 4278387459
81.82074 32.39753 826.01984 4278387459
82.379379 32.352436 826.24341 4278453250
61.186569 32.832405 828.32581 4278387458
61.646915 32.874386 828.10889 4278321922
62.079742 32.815678 827.84454 4278387458
62.533752 32.853241 827.5553 4278321922
62.950539 32.784386 827.08856 4278387458
63.391258 32.818054 826.63055 4278387458
63.810501 32.752708 826.21027 4278387459
64.253807 32.784534 825.7923 4278387715
64.676292 32.719234 825.42694 4278387715
65.123543 32.756519 825.06714 4278387715
65.549179 32.695885 824.75659 4278453251
66.001938 32.734425 824.46967 4278453508
66.430687 32.67487 824.20978 4278453508
66.887825 32.715393 823.98492 4278453508
67.319153 32.657162 823.76678 4278453508
67.779045 32.699684 823.57465 4278453508
68.213921 32.644875 823.4115 4278453508
68.676834 32.689716 823.25696 4278519301
69.114311 32.63739 823.12836 4278519301
69.57991 32.681717 823.01276 4278519301
70.02021 32.626648 822.9198 4278519558
70.488777 32.671902 822.84009 4278585351
70.930305 32.614223 822.76691 4278651144
71.400101 32.657581 822.7016 4278782473
71.844154 32.608822 822.66028 4278782730
72.31739 32.660713 822.62897 4278848522
72.764099 32.60841 822.6203 4278782986
73.241577 32.661263 822.63483 4278782729
73.693016 32.61795 822.6828 4278782729
74.176544 32.671532 822.75598 4278716680
74.631683 32.625626 822.84656 4278650887
75.118446 32.681511 822.95135 4278585094
75.576576 32.639668 823.07336 4278584837
76.065865 32.693172 823.20068 4278519300
76.524933 32.647484 823.33521 4278453508
77.016136 32.701115 823.47095 4278453508
77.475212 32.657085 823.61237 4278453508
77.971008 32.71669 823.78931 4278453251
78.433968 32.677959 823.97119 4278387715
78.935776 32.736145 824.20587 4278387715
79.407303 32.695171 824.46808 4278387715
79.917236 32.756233 824.77747 4278387715
80.401276 32.721401 825.16437 4278387459
80.904213 32.779491 825.38849 4278387459
81.374664 32.745071 825.64758 4278387459
81.876976 32.800743 825.85962 4278387459
61.217812 33.357784 828.59381 4278387458
61.601803 33.403221 828.36829 4278321922
62.108166 33.337521 828.07483 4278321922
62.484772 33.380238 827.76453 4278321922
62.97509 33.305771 827.25635 4278387458
63.338825 33.340706 826.79126 4278387458
63.832729 33.269165 826.33435 4278387715
64.198814 33.304996 825.92401 4278387715
64.696709 33.236656 825.52673 4278453251
65.066299 33.278 825.17133 4278387715
65.568817 33.212479 824.84406 4278453251
65.943359 33.253563 824.56165 4278453508
66.450256 33.189674 824.29376 4278453508
66.828964 33.233517 824.07678 4278453508
67.339394 33.171543 823.85345 4278453508
67.72023 33.217754 823.67236 4278453508
68.235023 33.1595 823.50568 4278519044
68.618225 33.209694 823.36053 4278519300
69.135841 33.152447 823.22729 4278519301
69.521187 33.199909 823.11401 4278519301
70.042091 33.141438 823.01624 4278585350
70.429192 33.190128 822.93201 4278651144
70.951462 33.130054 822.84949 4278782730
71.33918 33.176392 822.77869 4278914315
71.864304 33.122154 822.72748 4278914573
72.255127 33.17664 822.69305 4278980365
72.783585 33.124199 822.67859 4278914573
73.178444 33.178612 822.69415 4278914315
73.713112 33.130531 822.74261 4278848522
74.112961 33.190742 822.81506 4278716936
74.65181 33.141457 822.90704 4278651143
75.054489 33.198944 823.01019 4278650887
75.596695 33.151855 823.133 4278585093
76.001251 33.210003 823.25671 4278519301
76.545021 33.160313 823.39062 4278519300
76.950348 33.217976 823.52313 4278453508
77.496552 33.172539 823.66882 4278453508
77.905334 33.234592 823.84033 4278453251
78.45578 33.19043 824.02576 4278387715
78.86924 33.252583 824.2486 4278387715
79.429047 33.208172 824.51617 4278387715
79.848709 33.273479 824.80548 4278387459
80.422867 33.237244 825.20959 4278387459
80.849075 33.30125 825.56201 4278387459
81.41938 33.260784 825.91229 4278387458
81.831589 33.328846 826.13129 4278387458
82.394241 33.287807 826.39264 4278453250
61.657879 33.809868 828.25684 4278321922
62.091103 33.748524 827.99414 4278321922
62.544693 33.790047 827.70209 4278321922
62.972755 33.725861 827.38245 4278387458
63.411999 33.752735 826.8996 4278387458
63.828838 33.685394 826.44659 4278387459
64.271393 33.719967 826.01776 4278387715
64.69149 33.653538 825.62225 4278387715
65.1371 33.689003 825.24152 4278453251
65.562126 33.628185 824.91956 4278453251
66.01339 33.665836 824.61542 4278453251
66.442116 33.604778 824.35291 4278453508
66.898949 33.644829 824.1228 4278453508
67.330536 33.585335 823.90948 4278453508
67.791176 33.627056 823.72394 4278453508
68.226654 33.574673 823.56909 4278519044
68.69043 33.623688 823.42255 4278519300
69.128181 33.56897 823.29846 4278519301
69.5942 33.610065 823.18335 4278519557
70.034523 33.555737 823.09167 4278585350
70.501961 33.601101 822.99646 4278717192
70.942688 33.543091 822.91406 4278848779
71.411201 33.588326 822.83185 4279046158
71.85405 33.535366 822.77948 4279111951
72.326485 33.584976 822.73566 4279243024
72.7724 33.536137 822.7196 4279112208
73.250244 33.589882 822.73456 4279046157
73.701904 33.545345 822.78479 4278848779
74.1856 33.601166 822.86005 4278782729
74.641121 33.55645 822.95111 4278651144
75.1278 33.609463 823.05774 4278585351
75.585884 33.564289 823.17816 4278519557
76.075142 33.619747 823.30414 4278519301
76.533852 33.573483 823.43311 4278519300
77.024765 33.628059 823.56921 4278453508
77.484711 33.588512 823.71252 4278453508
77.980095 33.647636 823.88837 4278453251
78.442566 33.603958 824.0625 4278387715
78.944008 33.661659 824.29333 4278387715
79.413773 33.619526 824.53668 4278387715
79.923035 33.682674 824.8374 4278387715
80.405098 33.649986 825.21136 4278387459
80.906685 33.705673 825.41595 4278387458
81.375809 33.669437 825.68109 4278387458
81.878494 33.72839 825.87653 4278321922
61.603531 34.332844 828.39069 4278321922
62.110722 34.265797 828.10559 4278387458
62.487442 34.31012 827.80157 4278321922
62.990513 34.242695 827.4588 4278321922
63.353256 34.276199 826.98102 4278387458
63.845684 34.203163 826.50366 4278387458
64.211784 34.237778 826.09247 4278387714
64.708061 34.166569 825.67474 4278387715
65.076843 34.206341 825.30713 4278453251
65.578743 34.142944 824.97101 4278453251
65.952126 34.184742 824.67255 4278453507
66.458763 34.119873 824.40289 4278453508
66.837265 34.161903 824.17938 4278453508
67.347771 34.099213 823.96075 4278453508
67.729523 34.145355 823.78467 4278453508
68.244797 34.089741 823.62677 4278519044
68.629166 34.139706 823.4917 4278519300
69.147667 34.080162 823.36731 4278584837
69.533287 34.126572 823.25732 4278519557
70.054474 34.069626 823.1637 4278651142
70.440727 34.118649 823.06909 4278717193
70.96228 34.060688 822.97931 4278914828
71.348984 34.109112 822.89447 4279177743
71.872787 34.052071 822.82983 4279243795
72.26281 34.100601 822.7829 4279440915
72.79055 34.048359 822.75842 4279309331
73.185249 34.105095 822.77051 4279177743
73.719711 34.057678 822.81683 4278914572
74.119583 34.118141 822.88928 4278782986
74.658157 34.070435 822.979 4278716679
75.06118 34.12566 823.08453 4278585350
75.603157 34.075684 823.20398 4278519557
76.007446 34.133217 823.32721 4278519301
76.551598 34.086433 823.45715 4278519300
76.956322 34.145512 823.58978 4278453508
77.503189 34.101181 823.73981 4278453508
77.911446 34.162441 823.90729 4278387715
78.461357 34.116402 824.08722 4278387715
78.874924 34.177235 824.30829 4278387715
79.432892 34.133724 824.56061 4278387715
79.852585 34.198483 824.84827 4278387715
80.425751 34.162708 825.23938 4278387715
80.851418 34.230282 825.58563 4278387459
81.422485 34.190479 825.94476 4278387458
81.834305 34.256756 826.1579 4278387459
82.398468 34.217587 826.43878 4278453250
61.670059 34.745155 828.42004 4278321922
62.1035 34.684029 828.15778 4278387458
62.556114 34.72501 827.84979 4278321922
62.983131 34.660416 827.52338 4278321922
63.42168 34.688049 827.0274 4278321922
63.837849 34.619041 826.56598 4278387458
64.280403 34.651657 826.13464 4278387714
64.699875 34.583553 825.72919 4278387715
65.144547 34.617447 825.33698 4278453251
65.56916 34.555786 825.00879 4278453507
66.019051 34.594433 824.68878 4278453251
66.447502 34.532764 824.42346 4278453507
66.904388 34.571754 824.18793 4278453508
67.336174 34.512817 823.97632 4278453508
67.797195 34.556728 823.79657 4278453508
68.233589 34.503616 823.6485 4278453508
68.698135 34.548706 823.51581 4278453764
69.136795 34.491741 823.40149 4278519301
69.603554 34.535019 823.29254 4278519557
70.044022 34.481964 823.20508 4278651143
70.511459 34.52998 823.10718 4278782985
70.951645 34.476753 823.01978 4279046157
71.419342 34.521435 822.92773 4279374610
71.860954 34.463497 822.86255 4279441428
72.332878 34.510899 822.81018 4279572502
72.777618 34.461327 822.78406 4279441171
73.255707 34.514992 822.79541 4279243536
73.706596 34.470127 822.83887 4278980365
74.190231 34.527222 822.91235 4278782986
74.644997 34.482426 822.99988 4278716936
75.131889 34.535194 823.10669 4278585350
75.589699 34.487942 823.22284 4278519557
76.07859 34.543045 823.3476 4278519301
76.53759 34.500229 823.47449 4278519301
77.02845 34.558399 823.61328 4278453508
77.489365 34.516132 823.76276 4278453508
77.984116 34.571411 823.93457 4278387716
78.447113 34.526279 824.10852 4278387715
78.948006 34.586708 824.33557 4278387715
79.416603 34.546841 824.56836 4278387715
79.925827 34.609356 824.86731 4278387715
80.40554 34.574463 825.21759 4278387715
80.906494 34.635342 825.41724 4278387459
81.374725 34.597504 825.66852 4278387459
81.876312 34.653984 825.8551 4278387715
61.607285 35.263062 828.44061 4278387458
62.116924 35.200371 828.18469 4278387458
62.492855 35.237762 827.87061 4278387458
62.996677 35.173252 827.54077 4278387458
63.358807 35.205547 827.05518 4278387458
63.850979 35.131893 826.5744 4278387458
64.217636 35.168056 826.16718 4278387714
64.713425 35.098774 825.7431 4278387715
65.082047 35.137142 825.37402 4278453251
65.583496 35.070435 825.03204 4278453507
65.956161 35.110752 824.72424 4278453507
66.462646 35.046001 824.45227 4278453507
66.84095 35.087482 824.224 4278453508
67.351662 35.026665 824.00671 4278453508
67.733482 35.073006 823.8335 4278453508
68.249313 35.014271 823.6792 4278453508
68.634499 35.061981 823.55707 4278453764
69.154007 35.005428 823.44098 4278519301
69.540237 35.053318 823.33881 4278519558
70.061592 34.996696 823.24835 4278651143
70.448135 35.04607 823.15631 4278717449
70.969292 34.990314 823.06366 4279046413
71.35569 35.037464 822.97253 4279506450
71.878197 34.978973 822.89587 4279835416
72.267868 35.028652 822.84192 4279901464
72.794273 34.977154 822.80627 4279507222
73.188957 35.031197 822.81409 4279309329
73.722343 34.982517 822.85065 4278980621
74.122261 35.041611 822.92157 4278848523
74.660454 34.993401 823.00665 4278716936
75.063408 35.048653 823.11121 4278585350
75.605042 34.999603 823.22711 4278585093
76.009171 35.058388 823.3465 4278519301
76.553452 35.013729 823.4762 4278519301
76.958427 35.072021 823.61053 4278453508
77.505508 35.025173 823.7655 4278453508
77.913795 35.08604 823.93219 4278387716
78.463974 35.040752 824.1123 4278387715
78.877296 35.10083 824.33362 4278387715
79.4347 35.058716 824.57892 4278387715
79.853874 35.124645 824.8634 4278387715
80.425179 35.089962 825.23505 4278387715
80.849625 35.157589 825.56885 4278387459
81.417587 35.115662 825.89813 4278387459
81.828751 35.180599 826.10199 4278387458
82.390022 35.140427 826.35687 4278387714
61.674797 35.677048 828.48615 4278387458
62.109859 35.616425 828.24255 4278387458
62.560551 35.654675 827.91187 4278387458
62.988918 35.59042 827.60126 4278387458
63.426228 35.618092 827.08319 4278321922
63.842197 35.545208 826.62152 4278387458
64.284264 35.578434 826.1825 4278387715
64.703377 35.513008 825.77271 4278387715
65.14785 35.548134 825.37872 4278453251
65.571884 35.484665 825.04572 4278453507
66.02198 35.521378 824.72308 4278453507
66.450134 35.45792 824.45569 4278453507
66.907333 35.497536 824.22162 4278453507
67.338898 35.439316 824.01001 4278453508
67.800438 35.482147 823.83527 4278453508
68.236572 35.423542 823.68713 4278453508
68.702499 35.468887 823.56628 4278453764
69.141212 35.417751 823.4566 4278519301
69.608864 35.465733 823.35754 4278519814
70.049088 35.411129 823.26874 4278651143
70.517349 35.45787 823.17816 4278717449
70.95681 35.403408 823.08673 4279046157
71.424828 35.447601 822.99249 4279440914
71.865326 35.391735 822.91669 4279901465
72.337074 35.440735 822.8584 4280098076
72.78067 35.388798 822.82153 4279573015
73.258255 35.44054 822.82477 4279309586
