# .PCD v0.7 - Point Cloud Data file format
VERSION 0.7
FIELDS x y z rgb
SIZE 4 4 4 4
TYPE F F F U
COUNT 1 1 1 1
WIDTH 1173
HEIGHT 1
VIEWPOINT 0 0 0 1 0 0 0
POINTS 1173
DATA ascii
187.53407 0.41159514 823.62036 4286423940
187.98167 0.37010852 823.66956 4285763689
188.43001 0.40192467 823.62396 4283669596
96.86882 0.87309682 819.54047 4283127100
97.381851 0.80651295 819.3515 4283194172
97.739227 0.87378645 819.16254 4283066181
98.243011 0.80438012 818.95093 4284842072
98.590744 0.87282097 818.64716 4286158961
99.08226 0.80619776 818.35413 4288000384
99.439407 0.87444037 818.12097 4289581977
99.947174 0.8013441 817.93091 4292145348
100.31638 0.86575633 817.7923 4294836189
100.83864 0.79537851 817.7019 4291428311
101.2194 0.86471784 817.65723 4288213174
101.75343 0.79839838 817.66187 4288275632
102.14453 0.87228322 817.68268 4289251240
102.69182 0.80709612 817.75854 4287735186
103.09359 0.8741942 817.85608 4286812285
103.63839 0.80612737 817.91614 4285232998
104.03968 0.87608886 817.97107 4283129170
104.56463 0.80592805 818.04034 4283127601
155.20786 0.91829979 825.43152 4282076971
155.64383 0.85323101 824.73969 4283392318
155.93529 0.91773826 824.36517 4283920975
156.38678 0.84929669 823.85675 4284449117
156.66539 0.91951931 823.341 4285304170
157.1212 0.84692866 822.88007 4286422135
157.42825 0.91850072 822.50146 4288000652
157.91685 0.84866774 822.18298 4289973916
158.24539 0.92115927 821.95502 4290832556
158.76836 0.84709513 821.78204 4293197777
159.12167 0.91000682 821.68439 4294967266
159.6694 0.83488619 821.64014 4293984224
160.04436 0.9074235 821.65527 4294377419
160.61266 0.84366482 821.71332 4293851075
161.00204 0.9206304 821.80554 4291614639
161.57277 0.85262382 821.87439 4288921751
161.96689 0.92281389 821.99066 4287737995
162.53351 0.84906501 822.06451 4287603070
162.91829 0.92095029 822.1051 4286551416
163.49187 0.85140127 822.17346 4286749292
181.08861 0.874789 825.94373 4283787590
181.40042 0.94129455 825.72418 4284118098
181.88889 0.87501764 825.41125 4285630562
182.18977 0.94466299 825.12134 4287209335
182.64467 0.87288189 824.65149 4288723334
182.92072 0.94256151 824.23706 4289647517
183.40634 0.86537564 823.89246 4292673431
183.71941 0.93082792 823.64417 4294967268
184.24185 0.85928094 823.45557 4294967295
184.58823 0.92880821 823.35712 4294967295
185.14552 0.85404772 823.32538 4294967295
185.52466 0.93159348 823.37305 4289787336
186.1076 0.87231934 823.45422 4289842576
186.50519 0.95040733 823.57465 4288330140
187.08997 0.87896597 823.65686 4287670160
187.47701 0.94480634 823.7276 4287339650
188.06683 0.87636662 823.82129 4286155872
96.944641 1.2676778 819.51776 4282535222
97.35894 1.2271991 819.3432 4282798905
97.814651 1.2659013 819.15271 4282605628
98.23349 1.2270507 818.95752 4283986768
98.665886 1.2670746 818.64539 4285172842
99.074928 1.2293171 818.36316 4287080315
99.512665 1.2648947 818.11566 4289252759
99.932846 1.2223505 817.92987 4290372279
100.38804 1.2567786 817.77893 4292148691
100.81351 1.2101129 817.68915 4293263339
101.29007 1.2524993 817.63641 4293591018
101.73273 1.2145523 817.63544 4289655497
102.21561 1.2614267 817.65405 4287480996
102.67173 1.2286713 817.71906 4286618506
103.15699 1.2692883 817.75171 4285039213
103.61127 1.2296852 817.79266 4283983445
104.10032 1.2702852 817.82538 4281422655
155.29898 1.3158604 825.40179 4281815081
155.60109 1.2750554 824.75555 4283063868
156.02225 1.3131344 824.34821 4283789133
156.36304 1.2750397 823.86926 4284842589
156.74956 1.3123157 823.32672 4285698926
157.09731 1.275237 822.88245 4286291321
157.50876 1.3133285 822.4826 4287082377
157.88239 1.2733014 822.17694 4289317272
158.33128 1.3103671 821.9292 4290241954
158.72229 1.2597152 821.76794 4293001165
159.20811 1.299692 821.6629 4294967265
159.6223 1.2523257 821.62286 4294967236
160.13341 1.2965511 821.64368 4294967232
160.56522 1.2585028 821.6972 4294311882
161.09277 1.3105747 821.80103 4290829229
161.53462 1.2748449 821.85669 4288724628
162.04137 1.3153032 821.90247 4287804045
162.48451 1.2746814 821.95129 4287208830
162.98436 1.3119996 821.97168 4285633651
181.05569 1.2987468 826.02588 4283393350
181.51221 1.3374339 825.79047 4284118353
181.86809 1.3013554 825.49243 4285432925
182.29419 1.3395636 825.16339 4286159467
182.62141 1.2998352 824.7135 4288197247
183.01962 1.3347534 824.25244 4288078505
183.36995 1.2851588 823.9231 4294311859
183.81848 1.3229187 823.65057 4294967295
184.19453 1.2768346 823.4726 4294967295
184.68738 1.3207356 823.36523 4294967295
185.09949 1.2706157 823.33362 4294967295
185.62599 1.3202542 823.38959 4289462216
186.07222 1.2930465 823.46429 4290232984
186.60756 1.3408062 823.58881 4287740310
187.07521 1.3058811 823.75177 4287341446
187.59326 1.3400848 823.84338 4285566072
188.05316 1.3002486 823.94977 4285168989
188.52428 1.3291004 824.04248 4283075662
97.358337 1.726558 819.15051 4282469939
97.720543 1.7927632 818.99261 4282209593
98.231987 1.7237055 818.81982 4283001416
98.594208 1.7931273 818.66028 4284316252
99.088936 1.7270472 818.36584 4285632360
99.441963 1.7929535 818.12567 4286818948
99.94809 1.7222397 817.91956 4288860319
100.31242 1.7859303 817.76794 4293197787
100.83257 1.7124637 817.66168 4294967295
101.21176 1.77839 817.60272 4294967295
101.7437 1.7125691 817.5929 4291428343
102.13653 1.7881372 817.60284 4286955172
102.68206 1.7264985 817.66205 4285303918
103.07623 1.7960401 817.70642 4282936411
103.62098 1.7287496 817.7439 4282998082
104.01267 1.7937815 817.77173 4281420603
104.53497 1.7246444 817.80627 4282471462
155.20633 1.846946 825.43164 4281683496
155.63632 1.7803464 824.71735 4282867254
155.92892 1.844893 824.33948 4284182605
156.38326 1.7761173 823.83087 4285497439
156.66431 1.8453021 823.34302 4286091884
157.12288 1.7767479 822.87793 4286488183
157.42744 1.8484526 822.50452 4288197770
157.9151 1.7760566 822.17981 4289907861
158.24106 1.8418586 821.93982 4290242216
158.76263 1.7642332 821.75946 4291493832
159.11441 1.828599 821.65417 4294967287
159.66003 1.7571627 821.60028 4294967295
160.03445 1.8282335 821.61151 4293328862
160.60056 1.7628038 821.65924 4292345784
160.99051 1.8419456 821.75385 4291223725
161.5564 1.777168 821.79962 4288398228
161.93762 1.8485065 821.83777 4287802507
162.50107 1.773654 821.88159 4286879606
162.88223 1.8448668 821.89771 4285631342
181.12372 1.8058199 826.11395 4283328589
181.43588 1.8712736 825.89685 4284314450
181.92865 1.8054506 825.5838 4285367128
182.22044 1.8740599 825.258 4285173604
182.67319 1.802639 824.77155 4288196215
182.93919 1.8700528 824.31567 4288795815
183.41779 1.7907534 823.95068 4294508446
183.72765 1.8570037 823.68805 4294967295
184.24693 1.7906278 823.48785 4294967295
184.59183 1.8623685 823.3808 4294967295
185.14731 1.783259 823.34039 4294967295
185.52597 1.8555198 823.38654 4294246384
186.11162 1.7951657 823.46277 4291809916
186.50418 1.872959 823.56653 4285442180
187.09058 1.8081967 823.63763 4286485615
187.47614 1.8718551 823.70093 4284775268
188.06642 1.8056867 823.78723 4284378436
97.773697 2.1861148 818.79443 4281815349
98.196159 2.1459033 818.65198 4282538814
98.651794 2.1851866 818.5094 4283264590
99.074402 2.1476536 818.36383 4284972384
99.515007 2.1855073 818.11359 4285308530
99.931107 2.1426587 817.91943 4289121179
100.38454 2.1769536 817.75769 4294967262
100.80814 2.1284559 817.65594 4294967295
101.28334 2.1703391 817.58948 4294967295
101.7272 2.1333888 817.57526 4292739062
102.20931 2.1794741 817.58594 4286497182
102.66339 2.1473889 817.63483 4284776557
103.14749 2.1890187 817.65985 4282411603
103.5947 2.1445315 817.69598 4282733892
104.08559 2.1882689 817.72046 4281356858
155.29759 2.2446072 825.40247 4281749032
155.58853 2.2028804 824.69501 4282932283
156.00879 2.2398081 824.27209 4284313168
156.35194 2.2030303 823.8175 4285497697
156.74971 2.2432528 823.31775 4285696875
157.09837 2.2038877 822.88013 4286028399
157.51244 2.2389672 822.48956 4287280006
157.88548 2.1968784 822.18207 4289317271
158.3289 2.2311459 821.92181 4288476077
158.72147 2.1803503 821.75354 4293459948
159.20227 2.2211974 821.63947 4294967295
159.6136 2.1742859 821.58612 4294967295
160.12286 2.2182243 821.59949 4294967295
160.55484 2.1798091 821.63702 4294246399
161.07861 2.2334485 821.7373 4288607408
161.51779 2.2001133 821.76288 4288659862
162.04434 2.2401819 821.91016 4286950283
162.48897 2.1980412 821.98358 4286814332
162.99922 2.2384837 822.00952 4285763701
163.36336 2.1698871 822.13269 4286089063
181.09032 2.2304711 826.18768 4283328071
181.55499 2.2702186 825.95331 4283723597
181.9082 2.2319162 825.66809 4285234777
182.32434 2.2676537 825.29346 4285895011
182.64922 2.2264037 824.83075 4287998081
183.03452 2.2598245 824.32721 4285718440
183.38461 2.2141347 823.97784 4294967205
183.82552 2.2549813 823.69067 4294967295
184.1989 2.2128346 823.5022 4294967295
184.68944 2.2582803 823.38391 4294967295
185.10321 2.2106667 823.34406 4294967295
185.62503 2.2540228 823.39447 4288741308
186.07379 2.2175393 823.46423 4289242228
186.60587 2.2610686 823.57294 4284785533
187.05296 2.2311203 823.63586 4284447840
187.57491 2.2691796 823.7016 4282608208
188.02271 2.2299783 823.78479 4282997311
97.698036 2.7114849 818.79688 4282010680
98.216187 2.6450467 818.65039 4282079805
98.580078 2.7130623 818.51428 4282738506
99.093239 2.6463983 818.35779 4284315985
99.445473 2.710182 818.11859 4284649582
99.949234 2.6398497 817.90918 4289055884
100.31186 2.7041612 817.74878 4294967253
100.82806 2.6345086 817.63269 4294967295
101.20557 2.7025638 817.56165 4294967295
101.73592 2.6348457 817.5379 4294180858
102.13067 2.7066975 817.54248 4288069284
102.67173 2.6435232 817.5835 4284909928
103.06557 2.7124691 817.61292 4282541144
103.60421 2.6444151 817.64453 4282865732
103.99741 2.7115734 817.66553 4281880126
104.53349 2.645957 817.69238 4282340138
155.20116 2.7756035 825.40546 4281813545
155.62086 2.7078536 824.6474 4282669626
155.90742 2.7698071 824.23328 4284312652
156.37686 2.7067289 823.77423 4285232471
156.66367 2.7753098 823.33685 4284972637
157.12973 2.7043002 822.88721 4285368927
157.43333 2.7705946 822.52985 4285504367
157.92258 2.6970432 822.20782 4289444479
158.24544 2.7617664 821.95685 4288210614
158.76282 2.687125 821.7677 4294770687
159.112 2.7533932 821.64978 4294967295
159.65395 2.6811311 821.57831 4294967295
160.02597 2.7507081 821.57587 4294967295
160.58699 2.6855156 821.59967 4294967295
160.97739 2.7659037 821.6817 4286963902
161.53519 2.7015581 821.6839 4289642887
161.91426 2.7712348 821.70465 4286817156
162.47813 2.6983802 821.72998 4286484852
162.85173 2.7685664 821.71954 4285695599
181.16228 2.7361538 826.3009 4284050507
181.47308 2.8014657 826.07782 4284183377
181.97708 2.7361298 825.78217 4285629021
182.25136 2.8005924 825.39642 4285763947
182.70119 2.7287357 824.88751 4287736950
182.95599 2.7947915 824.38824 4287484323
183.42714 2.7221324 823.99805 4294967166
183.73279 2.7943115 823.71844 4294967295
184.24905 2.7243009 823.50507 4294967295
184.59137 2.7952995 823.38617 4294967295
185.14438 2.724246 823.33624 4294967295
185.52434 2.7964323 823.37579 4293328854
186.10986 2.7233601 823.44666 4291017306
186.50046 2.7914927 823.53717 4284123254
187.08676 2.7302794 823.60223 4282805072
187.47092 2.7993109 823.66064 4281356611
188.06276 2.7347264 823.74377 4282471211
97.774323 3.1066341 818.78851 4281617462
98.194633 3.0658672 818.64258 4282406460
98.652924 3.1054814 818.50055 4283263817
99.074615 3.0647023 818.35175 4284117842
99.515739 3.101547 818.09802 4284191595
99.931374 3.0594449 817.90253 4288462475
100.38024 3.0959988 817.73029 4294508483
100.80565 3.05407 817.61938 4294967295
101.27642 3.0969727 817.54205 4294967295
101.71888 3.0594568 817.51569 4294967294
102.20344 3.1019082 817.52167 4288202404
102.65282 3.0632193 817.55603 4285367150
103.1395 3.1026325 817.58276 4282674267
103.5806 3.059572 817.61444 4282996810
104.07273 3.1061745 817.63318 4281553729
104.48973 3.0588167 817.66272 4282273332
155.29082 3.1757331 825.36432 4281813544
155.57556 3.1314168 824.62952 4282734392
155.99446 3.1669667 824.19012 4283852105
156.34209 3.1267488 823.77167 4283918414
156.75536 3.1690581 823.32526 4283525966
157.10426 3.127326 822.90448 4283920464
157.52542 3.1635551 822.53076 4284188252
157.89662 3.119509 822.22925 4287208558
158.33789 3.1530249 821.95807 4285066909
158.72903 3.104424 821.78137 4294967295
159.20319 3.1489248 821.65247 4294967295
159.61099 3.1039529 821.58197 4294967295
160.11671 3.143976 821.57568 4294967295
160.54721 3.1029909 821.5885 4294967295
161.0654 3.1561115 821.6604 4288543683
161.49486 3.1222858 821.6377 4288522624
161.9967 3.1644027 821.64471 4285372792
162.42314 3.1203618 821.65674 4285104484
162.92976 3.1630597 821.62329 4283857762
181.54367 3.199141 825.90936 4284248658
181.90326 3.1583245 825.65259 4285366623
182.31062 3.1917434 825.23865 4285240427
182.67171 3.1505313 824.94012 4286817654
183.04652 3.1882982 824.38892 4284801959
183.39149 3.1474092 824.01581 4294901656
183.82755 3.188803 823.7077 4294967295
184.19775 3.1453521 823.50452 4294967295
184.68466 3.1902997 823.37012 4294967295
185.09946 3.1511276 823.31927 4294967295
185.61472 3.1926329 823.35718 4291100586
186.06555 3.1468377 823.42145 4289103973
186.59433 3.1842706 823.51422 4284188533
187.03914 3.1533647 823.57178 4282867538
187.57205 3.1968606 823.63214 4280963133
188.00421 3.1564622 823.71179 4282140978
97.698608 3.6308954 818.79987 4281878838
98.216782 3.5657232 818.64301 4282405945
98.580643 3.6311667 818.5058 4282736964
99.093712 3.5637605 818.34326 4283986254
99.444695 3.6266301 818.09735 4285171049
99.949486 3.5597546 817.88879 4287608182
100.31007 3.6253192 817.7179 4292935605
100.82273 3.5560019 817.5929 4294967295
101.19853 3.6259441 817.51099 4294967295
101.72734 3.5610137 817.47443 4294967279
102.12112 3.6289451 817.47351 4289837217
102.66045 3.5593107 817.49988 4285696109
103.05332 3.624176 817.5238 4283197020
103.59486 3.5576029 817.55548 4282996550
103.98485 3.6288731 817.57568 4281880128
104.52821 3.5651445 817.60352 4282339630
155.52133 3.633215 824.12402 4282667574
155.83568 3.6963236 823.86334 4283193407
156.33981 3.6316545 823.56134 4282603584
156.66676 3.6981981 823.34698 4282538308
157.13977 3.6274445 822.91718 4282540610
157.44347 3.6933911 822.57745 4283133010
157.93578 3.6201754 822.26581 4286025288
158.25526 3.683358 822.00146 4285844612
158.76791 3.6109521 821.80182 4294967247
159.11395 3.6829829 821.66772 4294967295
159.65179 3.6151822 821.57678 4294967295
160.02029 3.6824772 821.55322 4294967295
160.57489 3.6099577 821.54761 4294967295
160.96193 3.6847634 821.59583 4287353266
161.50897 3.6220694 821.54132 4286750311
161.8838 3.6940091 821.53546 4283792485
162.4467 3.6236141 821.53101 4284118870
162.80823 3.6916685 821.47711 4283263574
181.46384 3.7297878 826.04468 4285035349
181.97943 3.6640656 825.78284 4285825375
182.23621 3.7243955 825.33527 4285829227
182.72177 3.6555099 824.98828 4286949491
182.96553 3.7236841 824.43842 4287023002
183.42966 3.6523907 824.01685 4291886991
183.73035 3.7255895 823.71381 4294967295
184.24176 3.6544816 823.47992 4294967295
184.5802 3.7258062 823.3432 4294967295
185.13025 3.6573861 823.28174 4294967295
185.50734 3.7275488 823.30859 4292723388
186.0961 3.6523247 823.37744 4288259696
186.48129 3.7190206 823.46008 4284252280
187.0704 3.6550808 823.52423 4282672213
187.45189 3.7265508 823.58282 4281683269
188.04343 3.6614726 823.66638 4282404652
97.773972 4.0258322 818.78455 4281682229
98.191841 3.9849558 818.62543 4282405177
98.650215 4.022727 818.48029 4283129921
99.072845 3.9834306 818.32532 4283984461
99.511063 4.0196595 818.06329 4283925344
99.929283 3.978915 817.86957 4287670396
100.3745 4.0163946 817.68866 4293654187
100.80195 3.9757936 817.57092 4294967295
101.26839 4.0171428 817.48438 4294967295
101.70958 3.9806631 817.448 4294967277
102.19297 4.0223222 817.44666 4288523150
102.64099 3.9793775 817.46979 4286021484
103.12679 4.0160604 817.4903 4283460187
103.56798 3.9745643 817.52197 4282930250
104.05968 4.0233784 817.53925 4281355582
104.48444 3.9786077 817.57007 4282010164
155.87434 4.0902262 823.55182 4282601273
156.25604 4.0507197 823.3252 4282470459
156.72472 4.0929785 823.1424 4282340668
157.10884 4.0468974 822.92432 4282800195
157.53598 4.084414 822.56097 4282608718
157.90628 4.041616 822.27087 4285168724
158.34572 4.0788198 821.98621 4283748720
158.7348 4.0344977 821.7998 4294967251
159.20284 4.0772748 821.65753 4294967295
159.60715 4.0337 821.57141 4294967295
160.10922 4.0772376 821.5451 4294967295
160.53821 4.0338554 821.5321 4294836223
161.04829 4.0784445 821.56281 4284278425
161.46761 4.0415158 821.49036 4285827693
161.96623 4.0858793 821.46832 4282742614
162.39525 4.0454931 821.4516 4283590224
162.88602 4.0875297 821.37054 4282410828
181.58321 4.129488 826.09326 4284772948
181.95125 4.0863919 825.8772 4285759584
182.33441 4.1208525 825.3559 4286091628
182.69063 4.0771961 825.03363 4287144826
183.05161 4.1148038 824.42297 4285845654
183.39008 4.0764909 824.01904 4292149168
183.82001 4.1196718 823.68158 4294967291
184.18552 4.0746012 823.45776 4294967295
184.66798 4.1169281 823.30359 4294967295
185.08081 4.0777225 823.24408 4294967295
185.59332 4.1199574 823.26923 4288533645
186.04401 4.075695 823.33337 4287467899
186.57262 4.1125045 823.42596 4284581760
187.01811 4.0763836 823.48639 4282999900
187.55188 4.1240959 823.55035 4280898113
187.98468 4.0829201 823.63385 4282010163
97.696724 4.5488129 818.78595 4281878580
98.212936 4.4845443 818.61823 4282273847
98.57856 4.5470033 818.47882 4282538303
99.088943 4.4809599 818.30981 4283656517
99.441444 4.5446548 818.05847 4283922779
99.944267 4.4785213 817.85217 4286883695
100.30636 4.545114 817.67328 4292473772
100.81561 4.4752579 817.54193 4294967295
101.19041 4.5433493 817.45203 4294967294
101.71857 4.4779935 817.40576 4291288768
102.11056 4.5458269 817.39691 4287144072
102.64889 4.4766355 817.41199 4286418029
103.04033 4.5402451 817.42657 4284378975
103.58154 4.4744239 817.45551 4283258952
103.97146 4.5458055 817.47418 4281747775
104.51373 4.4821658 817.49982 4282140971
155.76372 4.6199107 823.54388 4282535480
156.29213 4.5558634 823.30609 4282143033
156.62782 4.6210194 823.15454 4281946685
157.14186 4.5491405 822.92242 4282472766
157.44629 4.6129775 822.58765 4283130960
157.94212 4.54458 822.28955 4285366855
158.25891 4.6114883 822.01392 4285840506
158.76765 4.540297 821.80719 4292673480
159.1115 4.6107383 821.6626 4294967295
159.64697 4.5412221 821.55908 4294967295
160.01221 4.610239 821.51959 4294967295
160.56226 4.5395112 821.48981 4293722111
160.94455 4.6091866 821.50159 4285057959
161.4838 4.5433674 821.4024 4286879327
161.85268 4.6145763 821.37402 4283133531
162.41037 4.5475202 821.34082 4283853132
162.76117 4.6141963 821.24615 4283130959
181.50146 4.6602492 826.22473 4284510544
182.03333 4.5945654 826.01837 4285299288
182.26283 4.655961 825.4632 4285827944
182.74342 4.5828576 825.09485 4287275634
182.97447 4.649528 824.48621 4287414675
183.42935 4.5816293 824.02466 4290838443
183.72313 4.6553059 823.68872 4294967295
184.22809 4.5822687 823.42584 4294967295
184.56133 4.6508117 823.26605 4294967295
185.10809 4.581037 823.19086 4294967295
185.48174 4.6494346 823.20221 4291018924
186.06979 4.5768423 823.26953 4287802757
186.4559 4.6447453 823.35529 4285827717
187.04582 4.5801868 823.42371 4283065689
187.42848 4.6521149 823.48743 4281093184
188.02112 4.5877624 823.5769 4282470186
97.773468 4.9449668 818.77148 4281747252
98.187996 4.9030919 818.59924 4282141750
98.6492 4.9421334 818.45044 4282276155
99.069389 4.9008441 818.28589 4283392837
99.504341 4.9375291 818.01691 4283399511
99.925385 4.898035 817.823 4286620280
100.36665 4.9339104 817.63293 4291945891
100.7962 4.8934321 817.50922 4294836193
101.2587 4.9334173 817.41412 4294967268
101.69881 4.895782 817.37134 4289121452
102.18101 4.938601 817.36121 4286032000
102.62814 4.8960662 817.37659 4286024307
103.11239 4.9336958 817.38654 4284707683
103.55625 4.8928843 817.41492 4283324493
104.04485 4.9403114 817.43042 4281354554
104.47663 4.8977637 817.45844 4281877810
156.20387 4.9724116 823.05676 4282208056
156.68452 5.0141673 822.92609 4282209598
157.07336 4.9695044 822.74524 4282537794
157.53616 5.0095143 822.55554 4282213965
157.90585 4.9668655 822.27582 4284971348
158.34634 5.0069585 821.97986 4283943282
158.73122 4.9630818 821.78821 4293787598
159.1978 5.0034571 821.63818 4294967295
159.60071 4.9584045 821.54456 4294967295
160.10048 5.0028086 821.50647 4294967295
160.52628 4.9603653 821.47577 4294967295
161.03264 5.0023952 821.47174 4286178202
161.44225 4.9624195 821.36731 4286810991
161.93922 5.0094953 821.32446 4283331675
162.36043 4.9680934 821.28326 4283785806
162.84384 5.0102019 821.16553 4282737995
181.61768 5.0599437 826.25732 4284183118
181.99809 5.015779 826.09894 4285234522
182.36055 5.0504603 825.48108 4285565795
182.71344 5.0057864 825.14667 4286815093
183.06223 5.0444551 824.47815 4285841803
183.39191 5.0048633 824.03638 4290969533
183.81335 5.045743 823.65973 4294967292
184.17264 5.0000186 823.40753 4294967295
184.64906 5.0433879 823.22711 4294967295
185.0549 4.9977641 823.15143 4294967295
185.56653 5.0362992 823.15845 4291750053
186.01396 4.9952068 823.22076 4287864971
186.54645 5.041007 823.31781 4284319617
186.99028 5.0041599 823.38159 4282999130
187.5282 5.0497875 823.45258 4281094461
187.96141 5.0087199 823.54034 4281943858
97.695885 5.4663677 818.77826 4282009140
98.209694 5.4031954 818.59399 4282141492
98.574715 5.465107 818.45081 4282340412
99.083641 5.3987641 818.27118 4283655749
99.4347 5.4638667 818.01013 4283856985
99.937439 5.3976922 817.80219 4285964911
100.29804 5.4629765 817.61304 4290764709
100.80637 5.3934145 817.47424 4293525487
101.18002 5.4606085 817.37427 4293459941
101.7067 5.3922706 817.31958 4288075189
102.09775 5.4569449 817.30121 4287079047
102.6349 5.3903227 817.31049 4285958513
103.02547 5.4576049 817.31354 4284773218
103.5659 5.39259 817.33948 4283193415
103.95597 5.4616532 817.35614 4281681981
104.4978 5.39888 817.37939 4281878312
155.75429 5.5350337 823.55115 4282601015
156.28632 5.4784875 823.28369 4282339129
156.62465 5.5429926 823.14258 4282143293
157.13708 5.4748268 822.90521 4282275902
157.44093 5.538693 822.56628 4282474314
157.93912 5.4699392 822.28033 4285168707
158.2549 5.5369749 821.99884 4285182327
158.7625 5.4658566 821.78729 4292739010
159.10582 5.5345383 821.63983 4294967295
159.63982 5.4655108 821.52942 4294967295
160.00365 5.5339556 821.48291 4294967295
160.5506 5.462842 821.43805 4294967295
160.92766 5.5316672 821.42242 4285908647
161.46208 5.4656687 821.29877 4286944093
161.79411 5.5358887 821.08337 4283919454
162.33037 5.4692693 820.974 4283851850
162.6606 5.5339413 820.74432 4283196493
163.1355 5.4630671 820.41217 4284511048
181.52486 5.5902061 826.33844 4283789132
182.07182 5.5252161 826.19525 4285235288
182.28415 5.5850501 825.56628 4285172578
182.76477 5.5140319 825.19653 4286618731
182.98564 5.5806303 824.54358 4286298252
183.43245 5.5098186 824.04553 4289986472
183.71844 5.5787144 823.67499 4294836223
184.2164 5.5062222 823.38086 4294967295
184.54428 5.5750961 823.19843 4294967295
185.08669 5.501368 823.104 4294967295
185.45381 5.5656428 823.09711 4294967263
186.04333 5.4991302 823.16064 4288200073
186.4279 5.5741911 823.24695 4284319615
187.02014 5.510149 823.31824 4283130962
187.4053 5.5776992 823.38739 4281354814
187.99709 5.5136991 823.47858 4282337835
98.157143 5.8202567 818.35046 4282206517
98.624222 5.8602066 818.23102 4282668602
99.045372 5.8179173 818.09473 4283721032
99.500404 5.8582664 817.96783 4283596633
99.918228 5.8192725 817.77045 4286094965
100.36176 5.8557816 817.57208 4290238879
100.78733 5.8135891 817.44159 4293656550
101.24825 5.85079 817.33527 4294967295
101.68694 5.8049426 817.28326 4290175934
102.16499 5.8437996 817.26215 4286687862
102.61358 5.8064122 817.26843 4286220651
103.09393 5.8519125 817.26599 4284774244
103.54243 5.813602 817.29034 4283193932
104.02845 5.8561854 817.30066 4281355326
104.46626 5.8163152 817.32562 4281614895
156.19101 5.8969955 822.99591 4282404153
156.67409 5.9388084 822.87744 4282011963
157.06369 5.8952079 822.70123 4282209342
157.52779 5.9343996 822.51892 4282082635
157.89969 5.8910131 822.25073 4284839764
158.33934 5.932023 821.95026 4283547756
158.72334 5.8868299 821.75507 4293590987
159.18941 5.9260716 821.60272 4294967295
159.59117 5.8811893 821.50342 4294967295
160.09001 5.9272547 821.46094 4294967295
160.51361 5.8838482 821.41809 4294967295
161.0162 5.9259472 821.39551 4287098282
161.42343 5.8866644 821.27832 4286482796
161.91867 5.932807 821.22693 4282741340
162.33676 5.8908663 821.17065 4283917136
162.81744 5.9328094 821.03833 4283460946
181.63426 5.9906583 826.33905 4283657035
182.02615 5.947124 826.23383 4284513109
182.37775 5.98241 825.5647 4284976224
182.73094 5.9404659 825.23309 4285962604
183.07295 5.9744039 824.53381 4285055367
183.39577 5.9309363 824.06061 4289393322
183.81007 5.9719434 823.65295 4293197812
184.16393 5.9231372 823.37469 4294967295
184.63493 5.9655619 823.17157 4294967295
185.03415 5.9175706 823.07965 4294967295
185.54454 5.9584789 823.06781 4294967271
185.98827 5.918005 823.12524 4288592785
186.52377 5.9676623 823.22437 4283733634
186.9657 5.9308929 823.28967 4283458647
187.50717 5.9753189 823.367 4281356350
187.94037 5.9345078 823.45557 4282074932
98.17881 6.3201509 818.34393 4282206513
98.547188 6.3822074 818.22821 4282339897
99.060143 6.3159647 818.08606 4283786564
99.42852 6.3838181 817.96674 4283988313
99.930443 6.3185596 817.75366 4286292076
100.29036 6.38276 817.55768 4289716899
100.79754 6.3117433 817.41162 4293722111
101.16991 6.3741274 817.30078 4294967295
101.69515 6.3022456 817.23425 4290048718
102.08493 6.3667016 817.20563 4283934331
102.62052 6.3045006 817.20245 4286157668
103.01022 6.3755469 817.19745 4284839264
103.55025 6.3116755 817.21948 4283062857
103.93941 6.3771191 817.23053 4281812798
104.48099 6.3153744 817.25183 4281352232
156.22401 6.4018426 822.95953 4282403895
156.56871 6.466011 822.8562 4282010938
157.09462 6.4002333 822.67639 4282143806
157.43034 6.4636297 822.51819 4282671692
157.93332 6.3955941 822.24188 4284907076
158.24643 6.4619403 821.96161 4284526708
158.75676 6.3914013 821.74738 4292607927
159.0966 6.4577346 821.59869 4294967295
159.62926 6.3888283 821.48242 4294967295
159.99271 6.4573894 821.43384 4294967295
160.53763 6.3869486 821.37738 4294967295
160.91251 6.455019 821.35229 4288075962
161.44585 6.3882565 821.22314 4286486374
161.77783 6.4583559 821.00769 4283263838
162.30621 6.3914042 820.89172 4284113995
162.64433 6.4558191 820.66962 4283458639
163.12395 6.3851113 820.36206 4284247879
181.53275 6.5209532 826.3811 4284313167
182.09048 6.4557171 826.2876 4284316246
182.29553 6.5167489 825.62415 4284515678
182.77818 6.4453683 825.26331 4285634402
182.99449 6.508769 824.59052 4285509248
183.43597 6.4368777 824.06671 4289523335
183.7164 6.5051594 823.6731 4293197805
184.20964 6.4311991 823.35706 4294967295
184.53381 6.4984245 823.15869 4294967295
185.07301 6.4260793 823.05011 4294967295
185.43716 6.4922323 823.02936 4294967295
186.02557 6.4252725 823.08856 4289450634
186.41058 6.4980812 823.17639 4284058492
187.00327 6.4353456 823.24939 4283852623
187.38895 6.5028892 823.32208 4281945665
187.98091 6.4400601 823.41302 4282272300
98.15213 6.7378626 818.31702 4282140723
98.621155 6.7793512 818.1972 4282340404
99.040474 6.7345815 818.06177 4283458113
99.497986 6.7782311 817.93286 4283201362
99.912468 6.7395158 817.72937 4285700202
100.35826 6.7757087 817.52563 4289125780
100.78007 6.7296329 817.38812 4292083677
101.23922 6.7645144 817.27118 4294967295
101.67324 6.7167377 817.20599 4291952615
102.14957 6.7580595 817.17175 4288531365
102.59664 6.7220159 817.16193 4286815366
103.07558 6.7685604 817.14771 4284316513
103.52338 6.7287498 817.16528 4283259728
104.0121 6.7728992 817.16705 4281223486
104.44729 6.7319827 817.18628 4281548592
156.17532 6.8221288 822.91986 4282338103
156.66005 6.8634758 822.81036 4281945144
157.05116 6.8211751 822.64111 4282405695
157.51744 6.8602223 822.47137 4281951818
157.89159 6.8156581 822.2146 4284119117
158.33249 6.8568416 821.92102 4282500463
158.71635 6.8127861 821.72449 4293001162
159.18205 6.8521547 821.57117 4294967295
159.58258 6.8056679 821.46564 4294967295
160.08078 6.850503 821.42053 4294967295
160.50246 6.8075995 821.36761 4294967295
161.00403 6.8491826 821.34009 4286053298
161.41173 6.8074522 821.22516 4286419313
161.9075 6.8543277 821.17694 4282742364
162.32562 6.8132353 821.12006 4283850833
162.80762 6.85566 820.99628 4282999630
181.63321 6.9198222 826.34821 4284051022
182.03479 6.8767648 826.27966 4284579160
182.38792 6.9115577 825.60321 4284844387
182.74057 6.8691077 825.28296 4285633386
183.08549 6.9039693 824.58038 4285052289
183.40042 6.8581195 824.08698 4289651613
183.80983 6.896996 823.65918 4293853148
184.16003 6.8482494 823.3631 4294967295
184.62685 6.8927178 823.1427 4294967295
185.01961 6.8450375 823.03809 4294967295
185.52965 6.8865166 823.01044 4294967295
185.96895 6.8426032 823.06067 4289577381
186.5076 6.8928733 823.15942 4283930493
186.94687 6.8551626 823.224 4283983705
187.48418 6.8987088 823.3009 4281685824
187.92378 6.8604465 823.38904 4281812529
98.176414 7.2387691 818.33032 4282207025
98.544647 7.3011284 818.21234 4282274357
99.059753 7.2354603 818.06995 4283655231
99.425346 7.3018398 817.94635 4283395402
99.929054 7.2375336 817.72278 4284844365
100.2855 7.2997551 817.52374 4286365310
100.79484 7.2283654 817.36865 4291297236
101.16263 7.2893348 817.24988 4294967295
101.68553 7.2186871 817.16766 4294967295
102.07391 7.2829657 817.12549 4294967276
102.60658 7.2208776 817.10205 4288919206
102.99484 7.2909455 817.08228 4283792490
103.53364 7.227335 817.09479 4283392073
103.91833 7.2915664 817.09412 4281485631
104.46188 7.2307782 817.10565 4281746217
156.20805 7.3265495 822.88049 4282404150
156.55638 7.3902564 822.78357 4281945400
157.08371 7.3254395 822.61407 4282340151
157.41945 7.3878398 822.46783 4282146886
157.92688 7.3201437 822.20099 4284645186
158.23943 7.3859029 821.93225 4284592758
158.75275 7.3181653 821.71637 4293066678
159.08922 7.3839054 821.56726 4294967295
159.6207 7.313118 821.44513 4294967295
159.98381 7.3816395 821.39429 4294967295
160.52711 7.311924 821.33051 4294967295
160.90259 7.3784013 821.30817 4287226810
161.43761 7.3094821 821.18756 4287472741
161.772 7.3777418 820.98511 4283199581
162.30521 7.3136873 820.87848 4283523398
162.64563 7.3783565 820.68414 4282998860
163.14072 7.3100433 820.41705 4284182084
181.53668 7.449882 826.40387 4283788875
182.09962 7.3863215 826.33643 4284645211
182.30391 7.4426403 825.6684 4285106277
182.78661 7.3756547 825.3067 4285633130
182.99985 7.4395614 824.62286 4285704320
183.43785 7.3630419 824.08014 4289061252
183.71397 7.4289608 823.66992 4291428312
184.20406 7.3565149 823.33862 4294967295
184.52553 7.4252639 823.12915 4294967295
185.06189 7.3550639 823.00854 4294967295
185.42418 7.4216776 822.97852 4294967295
186.01088 7.3531241 823.03088 4289978802
186.3967 7.4234214 823.12115 4284058753
186.98929 7.3596935 823.19476 4284115534
187.37044 7.4268441 823.26715 4281355837
187.96689 7.3660641 823.35919 4282075947
98.151321 7.6568923 818.31683 4281944112
98.618561 7.6970825 818.19147 4282274611
99.038857 7.6548991 818.05621 4283260476
99.498581 7.6963768 817.92102 4282936389
99.908569 7.6555796 817.70361 4284512849
100.35749 7.6935811 817.49823 4286035056
100.77511 7.6470575 817.35162 4290705602
101.23274 7.6819534 817.22546 4294967295
101.66148 7.6304393 817.14374 4294967295
102.13552 7.6710873 817.09161 4294967289
102.5801 7.6356387 817.0611 4289316264
103.05721 7.6842217 817.02808 4283991144
103.5035 7.6461349 817.03424 4282800710
103.9873 7.688509 817.02136 4280962369
104.42643 7.6475415 817.02954 4281351984
156.15785 7.7460728 822.83588 4282273078
156.64417 7.7878914 822.73462 4281880378
157.03764 7.7437773 822.57739 4282142778
157.50613 7.7842374 822.4212 4281622852
157.88255 7.7401638 822.17358 4283986506
158.32599 7.7808828 821.8963 4282629743
158.70985 7.7356591 821.69727 4293001152
159.17453 7.7758341 821.54175 4294967295
159.57431 7.7303109 821.4303 4294967295
160.07121 7.7754655 821.37952 4294967295
160.49184 7.732501 821.32184 4294967295
160.99382 7.7744355 821.29572 4287757246
161.4039 7.730319 821.19275 4286945143
161.90169 7.7743402 821.15332 4282612315
162.32155 7.7364359 821.10504 4283129674
162.80727 7.7786818 820.99982 4282410575
181.63431 7.8500004 826.36115 4283722571
182.0417 7.8065109 826.3175 4284053845
182.39651 7.8419056 825.63483 4284318816
182.74811 7.7986741 825.31256 4285304427
183.09134 7.8313651 824.59875 4284328314
183.40266 7.7843266 824.08893 4288270483
183.80548 7.8233137 823.64606 4290969547
184.15657 7.7746744 823.33722 4294967295
184.6174 7.8178601 823.10815 4294967295
185.00822 7.7718763 822.99414 4294967295
185.5166 7.8157306 822.9599 4294967295
185.95477 7.7726302 823.00519 4290110933
186.49406 7.8198009 823.10687 4283603329
186.94585 7.7783413 823.22662 4283654741
187.4787 7.8215008 823.31152 4281226045
187.92429 7.7866573 823.3988 4281878067
188.43585 7.8277435 823.47137 4280571444
98.175743 8.1570845 818.32794 4281944110
98.543098 8.2182178 818.20483 4282273841
99.060562 8.153924 818.06293 4283326268
99.424942 8.2164593 817.93219 4282934595
99.928223 8.1544542 817.69659 4283987010
100.28425 8.2176256 817.49823 4284716910
100.79319 8.1456356 817.33374 4289259456
101.1594 8.2046232 817.21057 4294967295
101.67827 8.1351118 817.11206 4294967295
102.06153 8.2012091 817.05469 4293722073
102.5946 8.1387911 817.00909 4287936906
102.97747 8.2066011 816.96857 4284185702
103.50504 8.142581 816.87146 4282802246
103.87951 8.2039719 816.83319 4281616448
104.42104 8.1447611 816.79315 4281286186
104.77132 8.2077293 816.72101 4280958513
156.19215 8.250596 822.80286 4282338616
156.54103 8.314395 822.70941 4282273082
157.07281 8.2486343 822.55145 4282142519
157.40794 8.3120871 822.41479 4282079553
157.91914 8.2456818 822.15411 4284117819
158.23216 8.3097105 821.90198 4284392298
158.74814 8.2416582 821.68347 4291297177
159.08089 8.3065853 821.53119 4294967295
159.61147 8.2366276 821.40363 4294967295
159.9733 8.305687 821.34674 4294967295
160.51599 8.2366295 821.27991 4294967295
160.89105 8.3021069 821.25531 4290307022
161.42868 8.2328653 821.14905 4286948468
161.7673 8.2991619 820.9671 4282609758
162.306 8.2337198 820.87372 4283130437
162.65117 8.3010426 820.71869 4282670411
163.16391 8.2345943 820.50262 4283787587
181.53703 8.3796806 826.41241 4284050767
182.10663 8.3152771 826.37939 4284184920
182.31451 8.3741636 825.72284 4284252253
182.79388 8.3033848 825.34808 4285697637
183.00439 8.364583 824.6496 4285242746
183.43787 8.289176 824.08716 4288204421
183.70944 8.3550501 823.65588 4289331158
184.19693 8.2820978 823.31335 4294967295
184.51645 8.3497334 823.09473 4294967295
185.05023 8.2797289 822.96295 4294967295
185.41136 8.3480778 822.9281 4294967295
185.99689 8.2818012 822.97498 4290507461
186.38297 8.3508005 823.0675 4283863948
186.99004 8.2853804 823.20404 4283984467
187.3674 8.3519964 823.28247 4281551938
187.97002 8.2926254 823.37958 4282141229
188.32985 8.3600378 823.45691 4280962357
98.152008 8.5746689 818.32556 4281943341
98.618111 8.6146059 818.19147 4282142509
99.038193 8.5730677 818.05444 4282997303
99.496719 8.6106167 817.9104 4283328325
99.905128 8.5696907 817.67987 4284116042
100.35396 8.6099529 817.47327 4284061278
100.77048 8.561882 817.31775 4289584059
101.22726 8.5966721 817.1875 4294967295
101.65088 8.5492954 817.09143 4294967295
102.12584 8.5957842 817.02405 4294967273
102.56533 8.5567875 816.97528 4288396195
103.04236 8.6005487 816.91937 4284321127
103.47455 8.556859 816.83002 4283326285
103.95245 8.5984659 816.78162 4281289792
104.38945 8.5611649 816.74554 4281350958
104.84109 8.5992308 816.67096 4280238634
156.14252 8.6703558 822.76166 4282469687
156.62924 8.7124157 822.66248 4282010680
157.02422 8.6686335 822.51477 4282273338
157.49419 8.7103481 822.36584 4282408514
157.87117 8.6650648 822.12177 4283919433
158.31766 8.7035732 821.86115 4282426974
158.70164 8.6578245 821.66089 4290117547
159.16568 8.6987791 821.50244 4294967295
159.5649 8.6531925 821.38678 4294967295
160.06018 8.6991282 821.32928 4294967295
160.48044 8.6555729 821.27026 4294967295
160.98157 8.696702 821.23993 4289984700
161.39453 8.6524162 821.15118 4286814331
161.89354 8.6971693 821.11768 4282744160
162.31528 8.6591206 821.07953 4283195213
162.8042 8.7015438 820.99078 4282343496
181.63992 8.7791557 826.39111 4283657294
182.05768 8.7359266 826.396 4284183638
182.41858 8.7725992 825.71185 4284513628
182.76241 8.726511 825.3739 4285499752
183.10088 8.7601013 824.63214 4284915829
183.40663 8.7110395 824.10095 4288397713
183.80011 8.7475386 823.6261 4289658815
184.15163 8.7007942 823.30682 4294967295
184.60664 8.7430162 823.06689 4294967295
184.99432 8.6938066 822.94073 4294967295
185.50209 8.740449 822.90326 4294967295
185.93889 8.7016211 822.94397 4289521370
186.47922 8.7496376 823.0484 4283738005
186.93141 8.7057877 823.17041 4284247653
187.46082 8.7459097 823.25568 4281291586
187.91132 8.7127304 823.34747 4281877556
188.43178 8.7549629 823.42737 4280242994
98.179176 9.0749559 818.34918 4281943081
98.543739 9.1359873 818.2157 4281879083
99.062897 9.0727291 818.06866 4282931510
99.425659 9.1314297 817.92773 4283524676
99.928032 9.0699892 817.6767 4283985214
100.28304 9.1335249 817.47357 4282810462
100.79153 9.0632086 817.29926 4288402855
101.15646 9.1220598 817.17151 4294967295
101.67078 9.0541945 817.05865 4294967295
102.04943 9.1216202 816.98694 4294967295
102.58357 9.0586071 816.92938 4288793517
102.96152 9.1223602 816.86676 4283794798
103.49293 9.0573196 816.7832 4283654726
103.86495 9.1170578 816.74188 4281681726
104.40811 9.060895 816.7002 4281548071
104.76795 9.1233473 816.64709 4280367656
156.17609 9.1745481 822.72937 4282666550
156.5262 9.2380028 822.63696 4282207288
157.05956 9.1728411 822.48969 4282207798
157.3959 9.2365198 822.35693 4282210368
157.90729 9.1699381 822.09906 4284051518
158.2236 9.2319832 821.8634 4283076453
158.7392 9.1636457 821.64276 4288084895
159.0717 9.2285843 821.48993 4294967295
159.60162 9.1586676 821.35938 4294967295
159.96225 9.2270546 821.29663 4294967295
160.50504 9.1589661 821.23114 4294967295
160.87823 9.2250261 821.19653 4289721034
161.41843 9.1563692 821.10394 4287539829
161.75655 9.2214909 820.91803 4283856743
162.29739 9.1563711 820.82172 4283393096
162.64194 9.2229452 820.67749 4282670410
163.15494 9.1578436 820.4281 4283852603
181.54607 9.3091974 826.45831 4283722571
182.1288 9.2461596 826.48651 4283986259
182.3373 9.3032131 825.83173 4284578654
182.81337 9.2327528 825.44189 4285434468
183.0168 9.293335 824.71289 4285503862
183.44388 9.2169638 824.11963 4288661626
183.70541 9.2802505 823.64514 4289331146
184.18979 9.2074423 823.28674 4294967295
184.50557 9.2742891 823.05334 4294967295
185.03548 9.2034321 822.90399 4294967295
185.39551 9.2721405 822.86456 4294967295
185.97916 9.2092581 822.9035 4289455813
186.36565 9.2800274 822.99786 4284651162
186.97238 9.2129841 823.13324 4284904806
187.34691 9.2756634 823.21082 4281684809
187.95282 9.2186232 823.31219 4282141233
188.31995 9.2850285 823.3949 4280896823
98.596649 9.5304346 818.01837 4281747494
99.018578 9.48948 817.89771 4282733875
99.479446 9.5252686 817.77246 4283393602
99.901772 9.4845686 817.65656 4283721284
100.34998 9.5248575 817.44269 4282354775
100.76536 9.4787979 817.27942 4288794018
101.22133 9.516449 817.14294 4294967295
101.64301 9.468091 817.03455 4294967295
102.11635 9.5130301 816.95435 4294967295
102.5546 9.4736166 816.89825 4290041529
103.02992 9.5166683 816.82715 4284913780
103.46436 9.4735336 816.7561 4283916882
103.93891 9.5104294 816.70935 4281551425
104.38004 9.4772806 816.67657 4281415981
104.84961 9.5182552 816.62195 4279909154
156.11896 9.5903492 822.68994 4282535222
156.61444 9.6358347 822.59143 4282207801
157.00795 9.5908937 822.45392 4282142009
157.48201 9.6337366 822.30859 4281817665
157.8593 9.5880318 822.06665 4283393606
158.30882 9.6264 821.82178 4282031970
158.69229 9.5788031 821.61902 4289655726
159.15614 9.619916 821.45947 4294967295
159.55458 9.5735636 821.34064 4294967295
160.04875 9.6200047 821.27704 4294967295
160.46887 9.5759916 821.21912 4294967295
160.9675 9.6190844 821.17499 4291690450
161.38277 9.5763226 821.09918 4287867019
161.88229 9.6216803 821.06677 4283203688
162.30101 9.5803547 821.03326 4283523663
162.79546 9.624032 820.95288 4282672715
182.10069 9.6670179 826.59894 4284248918
182.43069 9.7026787 825.75482 4284448096
182.75731 9.6533318 825.34863 4285236836
183.11932 9.6888409 824.72052 4284588402
183.41933 9.6409388 824.15179 4288463755
183.79776 9.6752405 823.62097 4290445252
184.14899 9.6280956 823.28552 4294967295
184.59634 9.6682749 823.02802 4294967295
184.98013 9.6189041 822.88403 4294967295
185.48689 9.6668453 822.8418 4294967295
185.9213 9.6274891 822.87323 4289778897
186.46196 9.6744413 822.97919 4283603855
186.91353 9.6296864 823.09888 4284116323
187.44621 9.6720982 823.18408 4281554758
187.89391 9.6375818 823.2782 4281746744
188.42317 9.6819611 823.3631 4280111415
98.522728 10.051695 818.04803 4281681191
99.043793 9.9889297 817.91583 4282536752
99.409676 10.046988 817.78802 4282540092
99.924446 9.9857502 817.65253 4283721530
100.28024 10.04819 817.43726 4283071325
100.78532 9.9803371 817.25354 4288008856
101.15156 10.041286 817.11621 4294967295
101.66164 9.9728889 816.9917 4294967295
102.03635 10.038365 816.90936 4294967295
102.57258 9.9756756 816.84821 4289519018
102.9472 10.039268 816.77692 4284583799
103.48405 9.9741917 816.71735 4283918416
103.85734 10.030526 816.68042 4282403397
104.3974 9.9726467 816.64764 4281481768
104.76964 10.038897 816.61316 4280103972
156.16145 10.098316 822.6579 4282469430
156.51105 10.161182 822.5639 4282141752
157.0463 10.097098 822.42584 4281879606
157.3844 10.160678 822.29419 4282012481
157.89433 10.093193 822.03802 4283655742
158.21535 10.154106 821.81488 4283468648
158.72827 10.084499 821.59222 4290116515
159.06326 10.148516 821.43915 4294967295
159.58997 10.079634 821.30652 4294967295
159.94969 10.146938 821.23834 4294967295
160.49246 10.078522 821.17462 4294967295
160.86185 10.146139 821.11914 4292607968
161.40379 10.080188 821.03687 4287934082
161.74013 10.146026 820.84015 4283528807
162.27711 10.079725 820.72559 4283393095
162.62326 10.144199 820.58844 4282670666
163.11986 10.077847 820.25732 4283984195
181.55125 10.238595 826.49023 4283852875
182.16426 10.17777 826.65289 4284445271
182.3624 10.233496 825.95197 4284907105
182.83894 10.161316 825.56482 4285237344
183.03123 10.21969 824.78357 4284783217
183.45583 10.145104 824.1803 4288597881
183.70326 10.207711 823.64056 4290838479
184.18477 10.134378 823.27081 4294967295
184.49736 10.200663 823.02179 4294967295
185.02295 10.129539 822.85419 4294967295
185.38217 10.197433 822.81085 4294967295
185.96346 10.132794 822.84058 4288008077
186.34979 10.202226 822.93384 4283335815
186.95518 10.137837 823.06342 4284052062
187.33153 10.20318 823.13916 4282144075
187.93494 10.143883 823.23962 4281879095
188.30789 10.210252 823.32294 4281354811
98.597992 10.448811 818.03125 4281550115
99.018333 10.405663 817.89941 4282404911
99.478127 10.44224 817.76501 4283261247
99.899132 10.400315 817.63641 4283654981
100.34534 10.441797 817.40845 4282287960
100.75987 10.396503 817.23651 4288530327
101.21406 10.434739 817.08923 4294967288
101.63472 10.387317 816.97113 4294967295
102.10654 10.431465 816.88098 4294967295
102.54459 10.390271 816.8241 4289451947
103.01937 10.432892 816.74951 4284390522
103.45745 10.388171 816.70496 4283918932
103.936 10.424573 816.66614 4281684290
104.37497 10.393124 816.64459 4281349932
104.85493 10.435647 816.61108 4279712288
156.08997 10.50775 822.63568 4282403894
156.60161 10.559821 822.52997 4282010680
156.99628 10.514889 822.39771 4282010423
157.47043 10.558573 822.25299 4281947967
157.84729 10.511701 822.00922 4283588420
158.29877 10.549576 821.77478 4282356315
158.6826 10.500342 821.57239 4290441130
159.14594 10.540936 821.41284 4294967295
159.54462 10.492728 821.29309 4294967295
160.03725 10.539494 821.22394 4294967295
160.45741 10.494576 821.16614 4294967295
160.95123 10.539734 821.09723 4289789911
161.36754 10.500301 821.02704 4287866771
161.83134 10.544183 820.81384 4283138405
162.22891 10.497766 820.69281 4283392334
162.71458 10.541869 820.55176 4282540874
163.03334 10.487357 820.15625 4283984202
182.16945 10.600311 826.91968 4284510552
182.50505 10.636436 826.08069 4284907105
182.80504 10.584101 825.57123 4285237347
183.13776 10.618439 824.81006 4283999087
183.43358 10.568172 824.22278 4287743364
183.79579 10.600964 823.61792 4289134534
184.14508 10.555059 823.27441 4294967295
184.5883 10.595792 822.99738 4294967295
184.96773 10.544981 822.83655 4294967295
185.47334 10.591332 822.78693 4294967295
185.90517 10.548099 822.80939 4289647811
186.44508 10.59641 822.90991 4283671692
186.89482 10.556505 823.02234 4284445284
187.42957 10.601619 823.10327 4282015054
187.87372 10.562572 823.19482 4281878586
188.40907 10.608535 823.27588 4280373302
98.525414 10.969628 818.07501 4281549607
99.044937 10.907307 817.9295 4282274096
99.409554 10.964528 817.79169 4282801470
99.922714 10.901736 817.64294 4283524671
100.2765 10.963839 817.41077 4283530077
100.78022 10.898242 817.21722 4287548549
101.14508 10.959951 817.0675 4294967271
101.65351 10.891217 816.9342 4294967295
102.02739 10.954403 816.84161 4294967274
102.56306 10.891707 816.78076 4286893709
102.93769 10.955514 816.70721 4284977530
103.4771 10.890844 816.66913 4284445269
103.83663 10.945297 816.49945 4281749053
104.36794 10.881519 816.42273 4281087777
104.74414 10.9519 816.36926 4279840544
105.24129 10.891942 816.19995 4281680922
156.14592 11.021346 822.62775 4282535223
156.50214 11.085146 822.52289 4282207288
157.03412 11.021775 822.38452 4281879603
157.37624 11.084812 822.24841 4281881147
157.88329 11.017169 821.98584 4283786294
158.20647 11.077366 821.76343 4283794524
158.71739 11.006649 821.54095 4289917310
159.05492 11.069545 821.38849 4294967295
159.57884 11.001074 821.2558 4294967295
159.93806 11.06736 821.18536 4294967295
160.48062 10.998094 821.12018 4294967295
160.84552 11.066124 821.04187 4292083692
161.38783 11.002833 820.96075 4288591490
161.72203 11.068971 820.75354 4283332454
162.25273 11.002781 820.60822 4283589959
162.60007 11.064887 820.47791 4282802507
163.07605 10.996837 820.04181 4283919427
181.54309 11.166748 826.45563 4284246092
182.21646 11.110566 826.89447 4284379476
182.39236 11.161911 826.09241 4284973152
182.86656 11.091496 825.69556 4285369185
183.04987 11.149248 824.87476 4284453996
183.472 11.073149 824.25928 4287940205
183.70157 11.134389 823.63983 4289331138
184.18071 11.062447 823.25909 4294967295
184.48891 11.128102 822.99048 4294967295
185.01073 11.056147 822.80585 4294967295
185.36797 11.121634 822.75385 4294967295
185.94722 11.054351 822.77454 4290114484
186.33244 11.124892 822.86316 4284324242
186.93732 11.063946 822.98932 4285167970
187.31512 11.129072 823.06244 4282669904
187.9157 11.069176 823.16077 4282339125
188.29396 11.135332 823.24213 4280699700
98.599945 11.367059 818.05597 4281550374
99.019188 11.323074 817.91406 4282208303
99.478149 11.361136 817.77271 4283065409
99.897987 11.316237 817.63409 4283590724
100.34209 11.356413 817.38849 4282222934
100.75562 11.312767 817.20837 4288006291
101.20789 11.353942 817.0462 4294967269
101.6275 11.305076 816.9201 4294967295
102.09785 11.346583 816.81818 4294967295
102.53584 11.30498 816.76196 4287810488
103.01111 11.350436 816.69061 4284719496
103.45178 11.307019 816.66577 4284773219
103.93113 11.344454 816.63092 4282274883
104.3678 11.303429 816.62164 4280955944
104.85312 11.351577 816.60028 4279448607
156.56119 11.481472 822.3244 4282142264
156.95822 11.435637 822.20435 4282010677
157.43724 11.479257 822.08484 4282079292
157.83557 11.432775 821.9538 4283654463
158.28781 11.473077 821.72131 4282029396
158.6714 11.424433 821.51941 4289916052
159.13498 11.464252 821.36133 4294967268
159.53339 11.413928 821.24255 4294967295
160.02576 11.460473 821.1709 4294967295
160.44551 11.415998 821.11176 4294967295
160.93562 11.461529 821.02307 4291166188
