# .PCD v0.7 - Point Cloud Data file format
VERSION 0.7
FIELDS x y z rgb
SIZE 4 4 4 4
TYPE F F F U
COUNT 1 1 1 1
WIDTH 1127
HEIGHT 1
VIEWPOINT 0 0 0 0 0 0 1
POINTS 1127
DATA ascii
-0.7683273 -125.5834 629.31311 4278452994
-0.44491121 -125.45259 629.23804 4278452994
-0.058922011 -125.55365 629.24854 4278518530
0.65060514 -125.57037 629.39771 4278452737
1.3606588 -125.61806 629.63898 4278452737
1.6839825 -125.56313 629.79761 4278452737
2.0713422 -125.67461 629.89215 4278387201
2.3941903 -125.58541 629.93787 4278387201
2.7820716 -125.69543 630.04523 4278387201
3.1045737 -125.6087 630.05682 4278452738
3.4923377 -125.72321 630.11633 4278452994
3.8146598 -125.62933 630.0885 4278518530
4.202847 -125.73618 630.16779 4278452738
4.5246654 -125.63229 630.1275 4278452738
4.9134116 -125.72295 630.14618 4278387202
5.2341876 -125.62112 630.10211 4278386945
9.8869419 -125.73522 630.22095 4278255873
10.202536 -125.60062 630.01276 4278387202
10.588213 -125.65005 629.74286 4278452995
10.900428 -125.46713 629.33759 4278518787
-30.217627 -125.24219 629.24426 4278977794
-29.844807 -125.2093 629.17816 4279109121
-29.502668 -125.22001 629.1308 4279305986
-29.129284 -125.18698 629.04742 4279305987
-28.785788 -125.1852 628.98169 4279305987
-28.413147 -125.15066 628.90363 4279240451
-28.071104 -125.16113 628.87201 4279240451
-27.699526 -125.12887 628.8042 4279306242
-27.356064 -125.13582 628.74408 4279503107
-26.984015 -125.10234 628.6554 4279568644
-26.640409 -125.1017 628.5932 4279437571
-26.268604 -125.06195 628.50494 4279306242
-25.925081 -125.06966 628.44318 4279109378
-25.55456 -125.04128 628.3667 4279109123
-25.21114 -125.04548 628.3089 4279109636
-24.8409 -125.00799 628.24091 4279306757
-24.49831 -125.01437 628.20099 4279306757
-24.129578 -124.99194 628.16553 4279110148
-23.788786 -125.01199 628.16431 4279110148
-23.422009 -124.99771 628.19189 4279241477
-23.083794 -125.02483 628.25696 4279372805
-22.718678 -125.01904 628.3371 4279372549
-22.381111 -125.0589 628.43591 4279241220
-22.016724 -125.06317 628.52679 4279175684
-21.678988 -125.10509 628.62085 4279241477
-21.31369 -125.10273 628.68567 4279372806
-20.974722 -125.13155 628.75446 4279504134
-20.608702 -125.11658 628.79932 4279701256
-20.269638 -125.13722 628.84021 4279702279
-19.90287 -125.11428 628.86804 4280029702
-19.563398 -125.13775 628.90521 4280424971
-19.197855 -125.12805 628.93427 4281342732
-18.85734 -125.15822 628.96295 4282525971
-18.492384 -125.14948 628.99115 4283380502
-18.150755 -125.17807 629.01617 4282789899
-17.785814 -125.16429 629.04016 4282462226
-17.443308 -125.18527 629.05658 4282987553
-17.07732 -125.16518 629.07367 4283380508
-16.734497 -125.18546 629.09113 4284298277
-16.368799 -125.1737 629.11383 4284628010
-16.026024 -125.20188 629.14551 4284232741
-15.66117 -125.18636 629.18481 4282987042
-15.31794 -125.21096 629.21979 4283050278
-14.95354 -125.19801 629.25287 4282721309
-14.609659 -125.22159 629.28265 4281997839
-14.245708 -125.20492 629.30676 4281406989
-13.901467 -125.22593 629.32629 4280882444
-13.535772 -125.20863 629.34973 4280553739
-13.191722 -125.23578 629.37897 4280160266
-12.826068 -125.22591 629.4046 4280094732
-12.48242 -125.24855 629.43085 4279897867
-12.116144 -125.22918 629.45807 4279701261
-11.772338 -125.25348 629.48419 4279570188
-11.406854 -125.24054 629.50586 4279439113
-11.062562 -125.26118 629.52344 4279504650
-10.697883 -125.24691 629.55341 4279504394
-10.352668 -125.2718 629.57831 4279373066
-9.9892464 -125.26003 629.61768 4279241736
-9.6433897 -125.28192 629.65161 4279241992
-9.2805338 -125.27479 629.71216 4279241479
-8.934309 -125.29871 629.7489 4279241222
-8.5714512 -125.29255 629.79968 4278978566
-8.2247686 -125.31528 629.82477 4278781443
-7.8620915 -125.30633 629.86914 4278649858
-7.5146232 -125.32621 629.85541 4278650115
-7.1520944 -125.31416 629.86621 4278649859
-6.8044553 -125.32241 629.84991 4278650115
-6.4418569 -125.29227 629.82727 4278649859
-6.0936799 -125.29979 629.76831 4278584321
-5.7312565 -125.27988 629.7207 4278518529
-5.3825312 -125.2773 629.61621 4278518785
-5.01999 -125.24091 629.53192 4278584322
-4.6714997 -125.24443 629.47845 4278584322
-4.3099017 -125.22076 629.45325 4278518786
-3.9613433 -125.21995 629.42139 4278452994
-3.6003807 -125.19422 629.41736 4278387458
-3.2516949 -125.20148 629.36761 4278452994
-2.8905797 -125.1638 629.27588 4278452737
-2.5416372 -125.15913 629.17456 4278387201
-2.1807292 -125.14029 629.12561 4278452737
-1.83173 -125.17207 629.08691 4278452993
-1.4719664 -125.15683 629.10345 4278518530
-1.1229453 -125.16682 629.07361 4278518786
-0.76294166 -125.14528 629.07123 4278584322
-0.41386712 -125.14544 629.00323 4278649858
-0.05303489 -125.12356 629.0108 4278649859
0.29582965 -125.13036 628.98004 4278649858
0.6557467 -125.13568 629.10132 4278649858
1.0048347 -125.16761 629.19006 4278584066
1.3650812 -125.18486 629.3576 4278584065
1.7150278 -125.23544 629.49329 4278518529
2.0749879 -125.25259 629.64374 4278518529
2.4255593 -125.27634 629.69653 4278452993
2.785166 -125.26642 629.77063 4278452993
3.1358626 -125.29629 629.80219 4278518530
3.4949079 -125.29048 629.83472 4278584323
3.8461812 -125.30956 629.86383 4278649859
4.2054381 -125.30445 629.93805 4278649859
4.5566168 -125.32523 629.94745 4278649603
4.9158759 -125.31702 629.97809 4278584066
5.2666602 -125.33024 629.95569 4278518530
5.6257892 -125.31065 629.96143 4278518530
5.9766684 -125.32181 629.93329 4278452738
9.5311117 -125.3811 630.23846 4278255873
9.8871012 -125.33832 630.11151 4278387202
10.236378 -125.32348 629.93152 4278452995
10.587401 -125.23112 629.56653 4278584323
10.932976 -125.17226 629.1792 4278650116
-29.87644 -124.94299 629.54852 4278715393
-29.537998 -124.84189 629.51129 4278846722
-29.16008 -124.91291 629.41718 4278977794
-28.821598 -124.80195 629.35931 4278978050
-28.443817 -124.88305 629.28357 4279109378
-28.109417 -124.80269 629.30707 4279043842
-27.7334 -124.8843 629.27118 4279240706
-27.397356 -124.78445 629.25269 4279306498
-27.019123 -124.8623 629.16925 4279503107
-26.680326 -124.74905 629.08508 4279306242
-26.300125 -124.81238 628.95264 4279043842
-25.962185 -124.70467 628.8714 4279043587
-25.582703 -124.77814 628.7608 4279043587
-25.245859 -124.67535 628.69196 4279109636
-24.866766 -124.74017 628.59351 4279109892
-24.531431 -124.6319 628.54755 4279044100
-24.153591 -124.71441 628.48859 4278978563
-23.820297 -124.62706 628.48553 4279109636
-23.445812 -124.72123 628.49841 4279175684
-23.114609 -124.63891 628.5661 4279109892
-22.741766 -124.74454 628.63666 4279109891
-22.411722 -124.67139 628.73474 4279109635
-22.039118 -124.7825 628.8186 4279109891
-21.708929 -124.71349 628.91217 4279175428
-21.334806 -124.81564 628.96942 4279241220
-21.004345 -124.73387 629.03296 4279307013
-20.629148 -124.82793 629.06793 4279372805
-20.297766 -124.73393 629.09497 4279307269
-19.921886 -124.82755 629.10583 4279176965
-19.590227 -124.73523 629.12213 4279438854
-19.214081 -124.82865 629.12946 4279768070
-18.882645 -124.74356 629.1355 4280555530
-18.506577 -124.83918 629.14496 4281212685
-18.17503 -124.75307 629.1543 4281738252
-17.798307 -124.85124 629.16321 4281936144
-17.46718 -124.75833 629.16931 4282264082
-17.089598 -124.84432 629.17365 4283181073
-16.757631 -124.75408 629.18176 4283379222
-16.380758 -124.84909 629.18872 4284494367
-16.049021 -124.76039 629.21033 4283315229
-15.672615 -124.85473 629.23364 4282986789
-15.340738 -124.76749 629.25787 4284298538
-14.963937 -124.86601 629.27673 4283705636
-14.631644 -124.77442 629.29559 4282261523
-14.253779 -124.86557 629.30701 4281800717
-13.922287 -124.77483 629.31573 4280947981
-13.543876 -124.869 629.32794 4280554251
-13.212631 -124.77815 629.34314 4280423437
-12.833867 -124.87338 629.3598 4280620561
-12.503619 -124.78221 629.37402 4280621073
-12.125259 -124.88006 629.39276 4280029968
-11.794143 -124.79004 629.40692 4280357647
-11.415689 -124.88435 629.4212 4279898381
-11.085211 -124.79185 629.42798 4279570442
-10.706496 -124.88993 629.44818 4279767052
-10.376551 -124.79887 629.46344 4279701773
-9.9964857 -124.89429 629.49158 4279439628
-9.6682692 -124.80382 629.513 4279504651
-9.2873211 -124.90514 629.55927 4279439115
-8.9595928 -124.81615 629.58295 4279045129
-8.5779324 -124.91492 629.62341 4278651141
-8.2508068 -124.83092 629.64343 4278453508
-7.8689971 -124.9345 629.68304 4278585092
-7.5410786 -124.84282 629.69073 4278781959
-7.1592908 -124.94262 629.71637 4279044616
-6.8313766 -124.84567 629.7132 4279109639
-6.4491835 -124.93359 629.71985 4278781700
-6.1215491 -124.8383 629.69843 4278715908
-5.7384992 -124.93305 629.67914 4278584834
-5.4113064 -124.83148 629.63202 4278584579
-5.0275698 -124.91496 629.59473 4278584835
-4.701148 -124.81146 629.54138 4278650371
-4.3167715 -124.88826 629.49091 4278584578
-3.9911158 -124.7716 629.41888 4278452993
-3.6064336 -124.84059 629.35651 4278387457
-3.2811065 -124.72483 629.25439 4278387201
-2.8959773 -124.80858 629.14777 4278452993
-2.5710416 -124.70365 629.02234 4278452737
-2.186352 -124.78589 628.93964 4278452994
-1.8622699 -124.67159 628.83569 4278518787
-1.4772127 -124.75117 628.79523 4278519300
-1.1538709 -124.64571 628.73303 4278913030
-0.76845813 -124.73911 628.7406 4278913287
-0.44529057 -124.63703 628.71674 4278847494
-0.059106044 -124.75426 628.78833 4278585092
0.26479885 -124.6729 628.8158 4278650115
0.64999712 -124.7729 628.95209 4278781186
0.97324258 -124.68583 629.04156 4278715394
1.3596926 -124.81843 629.20355 4278649601
1.6825749 -124.74442 629.28833 4278584321
2.0695832 -124.86349 629.41687 4278715394
2.3921585 -124.77769 629.44946 4278584321
2.7794418 -124.88369 629.51855 4278518529
3.1016603 -124.79262 629.53302 4278584322
3.4893847 -124.89695 629.59009 4278715395
3.8113618 -124.80743 629.59741 4278650115
4.1994967 -124.91461 629.65778 4278649859
4.5210447 -124.82242 629.65784 4278649859
4.9093552 -124.91483 629.67279 4278715395
5.2303123 -124.81671 629.65271 4278649859
5.6186004 -124.90211 629.62286 4278649859
5.939178 -124.80383 629.57855 4278649859
6.3277488 -124.89865 629.56342 4278715395
6.6481476 -124.795 629.54822 4278584066
7.0376315 -124.88933 629.59393 4278584066
7.7494946 -124.93987 629.76068 4278518274
8.4605494 -124.93699 629.8457 4278321666
8.7803774 -124.85539 629.86053 4278387202
9.1704741 -124.94764 629.87585 4278387202
9.488965 -124.84999 629.81915 4278452995
9.8779898 -124.92393 629.71594 4278518531
10.193808 -124.79102 629.52448 4278518787
10.579478 -124.82879 629.24811 4278650115
10.89269 -124.67316 628.93884 4278650372
-28.438526 -124.55561 629.50049 4278715393
-28.100212 -124.58219 629.55267 4278846722
-27.732414 -124.56823 629.58643 4278978050
-27.385817 -124.59446 629.6142 4279240450
-27.022055 -124.57068 629.57623 4279240964
-26.678329 -124.56908 629.51825 4279109379
-26.303995 -124.5239 629.38147 4278912257
-25.957985 -124.51923 629.2735 4278912259
-25.5847 -124.48133 629.14948 4279043588
-25.239864 -124.48154 629.06866 4278978052
-24.867468 -124.43484 628.95374 4278912514
-24.523752 -124.43736 628.89844 4278912514
-24.153131 -124.40832 628.82239 4278978307
-23.811157 -124.42796 628.81525 4279109635
-23.443716 -124.40935 628.81586 4279175428
-23.10416 -124.43639 628.88617 4279175171
-22.73938 -124.4315 628.95117 4279044099
-22.400421 -124.46978 629.04596 4278978307
-22.036362 -124.47099 629.12744 4279043843
-21.69698 -124.50642 629.21979 4279044099
-21.3323 -124.4986 629.27838 4279044099
-20.991949 -124.52658 629.33875 4279109891
-20.625784 -124.51292 629.37213 4279109891
-20.284485 -124.53229 629.39148 4279109891
-19.917282 -124.51131 629.39282 4279109892
-19.575502 -124.52462 629.38879 4279110149
-19.208382 -124.50383 629.37653 4279438088
-18.865591 -124.51976 629.35645 4279767300
-18.500086 -124.49805 629.34192 4280160771
-18.156103 -124.52104 629.33014 4280686855
-17.791891 -124.50813 629.31909 4281080586
-17.446737 -124.51958 629.31256 4281735946
-17.083122 -124.49599 629.30463 4282063888
-16.737457 -124.51109 629.30389 4281998859
-16.373369 -124.49232 629.29938 4282131214
-16.027796 -124.51456 629.3136 4281672978
-15.664657 -124.49516 629.32605 4281410579
-15.319358 -124.51556 629.3446 4282394911
-14.955837 -124.50271 629.35193 4282854173
-14.61001 -124.52437 629.36731 4282655250
-14.246933 -124.50431 629.36621 4281800974
-13.901696 -124.52328 629.36633 4280882445
-13.536462 -124.50237 629.36133 4280488713
-13.191835 -124.51958 629.36603 4280489487
-12.826135 -124.49719 629.36322 4280884499
-12.482146 -124.5189 629.36548 4281015828
-12.115759 -124.50071 629.36731 4280227341
-11.771957 -124.52118 629.37427 4280029966
-11.405598 -124.50001 629.37616 4280095244
-11.061549 -124.5181 629.37836 4279898376
-10.696089 -124.50096 629.38983 4280029708
-10.351436 -124.52301 629.40063 4280095758
-9.9870787 -124.5062 629.41791 4279833358
-9.6417007 -124.52423 629.43201 4279833356
-9.2779932 -124.50861 629.46442 4279964688
-8.9322748 -124.52778 629.48126 4279702029
-8.5685854 -124.51627 629.50488 4278913545
-8.2224884 -124.54276 629.52118 4278585863
-7.8592701 -124.5377 629.55255 4278978568
-7.5126872 -124.55939 629.56403 4279504140
-7.1499472 -124.54143 629.59125 4279701005
-6.8034477 -124.55724 629.60645 4279569673
-6.4408336 -124.53793 629.6261 4279307272
-6.0934863 -124.55905 629.62311 4279373062
-5.7312145 -124.55132 629.61835 4279044870
-5.38273 -124.56142 629.58942 4278847749
-5.0207634 -124.53212 629.55847 4278781955
-4.6717987 -124.53648 629.50439 4278716164
-4.3099313 -124.50612 629.44116 4278584579
-3.9611113 -124.49492 629.35205 4278452994
-3.5994906 -124.44364 629.25073 4278387201
-3.2505267 -124.43367 629.11493 4278387201
-2.8892078 -124.39858 628.96552 4278452737
-2.5405695 -124.39768 628.81177 4278453249
-2.1798086 -124.35864 628.68353 4278650115
-1.8313357 -124.35328 628.56689 4278847494
-1.4720544 -124.32453 628.50366 4279176457
-1.1234486 -124.33115 628.45569 4279635980
-0.76431692 -124.3102 628.46075 4279702032
-0.41497868 -124.32856 628.48572 4279635981
-0.055274945 -124.33296 628.57312 4279044871
0.29424009 -124.36749 628.64734 4278781956
0.65464413 -124.36857 628.77802 4278846723
1.0041474 -124.3969 628.87402 4278715650
1.3640572 -124.40049 628.99445 4278715393
1.7138129 -124.43403 629.06348 4278780930
2.0731127 -124.43422 629.14679 4278781187
2.4232497 -124.45956 629.17725 4278649858
2.7823935 -124.45306 629.22168 4278584321
3.132601 -124.47028 629.2334 4278649859
3.4915371 -124.45875 629.27112 4278650115
3.842279 -124.48012 629.29047 4278649859
4.2011056 -124.47284 629.33545 4278649858
4.5519662 -124.49516 629.35687 4278715651
4.9108133 -124.48653 629.39319 4278781188
5.261806 -124.50636 629.4126 4278715651
5.6201859 -124.48709 629.41028 4278715651
5.9711823 -124.50298 629.40222 4278780931
6.3293214 -124.48998 629.40753 4278846723
6.680635 -124.49915 629.39557 4278846467
7.0389199 -124.47992 629.4303 4278780931
7.3909731 -124.51065 629.47736 4278780931
7.7494502 -124.51239 629.54352 4278780931
8.1019363 -124.5426 629.60315 4278649859
8.4602308 -124.53578 629.64856 4278518530
8.8123159 -124.55493 629.66711 4278452994
9.1699438 -124.53737 629.6709 4278518530
9.5207911 -124.53805 629.59369 4278584323
9.8758564 -124.49477 629.46179 4278584323
10.225035 -124.47974 629.28174 4278584323
10.577646 -124.41362 629.03796 4278650115
10.925735 -124.38138 628.80029 4278715908
-28.221857 -124.67565 631.8634 4278518273
-27.786932 -124.41319 630.52063 4278584065
-27.448973 -124.29089 630.45557 4278715393
-27.061457 -124.34072 630.18445 4278912258
-26.71925 -124.22086 630.0307 4278781186
-26.333687 -124.27032 629.78613 4278781186
-25.994493 -124.15343 629.68427 4278846466
-25.611696 -124.21035 629.50708 4278912259
-25.275301 -124.11099 629.4563 4278846979
-24.892424 -124.16467 629.27454 4278715650
-24.557867 -124.06483 629.25458 4278715650
-24.17827 -124.12997 629.159 4278846978
-23.846142 -124.05375 629.1994 4278978306
-23.469976 -124.14542 629.19672 4279043843
-23.140709 -124.07134 629.31079 4278978306
-22.766439 -124.17515 629.36774 4278912771
-22.436411 -124.10155 629.45776 4278912771
-22.062027 -124.2076 629.52448 4278912515
-21.732265 -124.13521 629.61572 4278846978
-21.35684 -124.23401 629.66486 4278912770
-21.025913 -124.15005 629.72028 4278912770
-20.649431 -124.24392 629.74725 4278912770
-20.317436 -124.1557 629.76318 4278912771
-19.939951 -124.24826 629.75201 4278912770
-19.606682 -124.14577 629.73041 4278978563
-19.228607 -124.22719 629.70062 4279110148
-18.895288 -124.12984 629.66211 4279372805
-18.517353 -124.21931 629.62488 4279373317
-18.184109 -124.12349 629.59509 4280028933
-17.806232 -124.21117 629.56641 4280357382
-17.47382 -124.11219 629.54706 4280619269
-17.095861 -124.1965 629.52307 4280816389
-16.762812 -124.10173 629.50671 4281012998
-16.38537 -124.18987 629.48285 4280751623
-16.05262 -124.09162 629.48035 4280882184
-15.675632 -124.18064 629.4704 4280554757
-15.34319 -124.08939 629.474 4280882954
-14.96633 -124.18415 629.46472 4281867020
-14.633677 -124.09269 629.4696 4281800970
-14.2562 -124.18277 629.45569 4281275914
-13.923973 -124.08965 629.44928 4280882443
-13.545868 -124.17876 629.43225 4280685578
-13.213657 -124.08189 629.42584 4280620812
-12.835707 -124.16819 629.4104 4280818190
-12.504382 -124.07269 629.40356 4280555787
-12.125802 -124.16602 629.39362 4280161288
-11.794598 -124.07297 629.39172 4280226827
-11.416278 -124.16416 629.38629 4280357898
-11.085696 -124.07156 629.38263 4280423436
-10.706402 -124.16305 629.3855 4280620815
-10.376658 -124.0715 629.3891 4280622098
-9.9968395 -124.16417 629.3952 4280228112
-9.6681767 -124.06897 629.39954 4280424721
-9.2872629 -124.15842 629.41388 4280622102
-8.958951 -124.06621 629.41626 4280623129
-8.5772266 -124.1637 629.42346 4279309843
-8.2495623 -124.0834 629.42554 4279767314
-7.8679104 -124.18309 629.44562 4279505170
-7.5399437 -124.08201 629.45093 4280423959
-7.158268 -124.17088 629.47888 4280227093
-6.8306251 -124.08218 629.49792 4280095246
-6.448915 -124.18452 629.53143 4279439882
-6.1211929 -124.10044 629.54749 4279308810
-5.7389116 -124.20254 629.56525 4279177739
-5.4112492 -124.10931 629.56409 4279504650
-5.0280709 -124.18993 629.54974 4279372808
-4.7009959 -124.08458 629.49414 4278978821
-4.3165665 -124.1577 629.40973 4278650371
-3.99036 -124.03519 629.29272 4278518786
-3.6052554 -124.08741 629.14832 4278452993
-3.2797468 -123.95688 628.97382 4278452738
-2.8944783 -124.0276 628.79999 4278518529
-2.5699332 -123.91358 628.61554 4278584323
-2.1853435 -123.98426 628.46924 4278913286
-1.8618256 -123.86158 628.32703 4279439115
-1.4771948 -123.92796 628.25702 4279899152
-1.1545411 -123.8205 628.20081 4280293649
-0.7697258 -123.9125 628.21851 4280359189
-0.44683728 -123.83083 628.25037 4280490516
-0.060257897 -123.95438 628.36084 4279505423
0.26273343 -123.88112 628.44891 4279176201
0.64901429 -123.99059 628.58911 4278978564
0.97194773 -123.91582 628.68842 4278781186
1.3586472 -124.02944 628.80981 4278781186
1.681241 -123.94618 628.86591 4278912259
2.0676608 -124.05298 628.93402 4278846467
2.3899844 -123.96667 628.94751 4278715394
2.7767153 -124.0652 628.97565 4278584322
3.0985975 -123.96674 628.96552 4278649859
3.4858813 -124.06122 628.99316 4278650115
3.8074231 -123.97015 628.99786 4278781188
4.1952114 -124.07324 629.03577 4278781444
4.516386 -123.98546 629.04724 4278846980
4.9044342 -124.08516 629.08496 4278846980
5.2254739 -123.9948 629.10004 4278781188
5.6139383 -124.09248 629.13208 4278715652
5.9346886 -124.00329 629.14807 4278846724
6.3236732 -124.10534 629.19232 4278977796
6.6441603 -124.01286 629.20996 4278912259
7.0336905 -124.11497 629.27423 4278846723
7.3544497 -124.02964 629.30872 4278846723
7.7442131 -124.14207 629.37714 4278912259
8.0648422 -124.05484 629.4212 4278781187
8.4547291 -124.15357 629.46552 4278715651
8.7740059 -124.06039 629.44366 4278649859
9.1632137 -124.14407 629.41455 4278649858
9.4809752 -124.03407 629.30981 4278715395
9.8686867 -124.1003 629.17145 4278781188
10.18483 -123.97371 629.00409 4278846724
10.571863 -124.02895 628.82373 4278781444
10.887198 -123.90009 628.64288 4278912773
-27.409056 -124.04832 630.48621 4278321664
-27.055092 -124.01063 630.38538 4278452736
-26.709383 -124.00104 630.28143 4278518529
-26.331753 -123.95565 630.0741 4278584066
-25.984827 -123.94122 629.95557 4278584065
-25.608694 -123.88425 629.76593 4278649858
-25.264656 -123.89322 629.72388 4278649859
-24.888201 -123.83104 629.50177 4278584322
-24.547623 -123.85336 629.53436 4278584321
-24.175787 -123.81866 629.43921 4278715394
-23.838099 -123.85863 629.55682 4278781186
-23.470873 -123.84312 629.5733 4278846978
-23.13406 -123.88728 629.72766 4278846722
-22.768 -123.8799 629.77234 4278781186
-22.428282 -123.91521 629.85724 4278781187
-22.062719 -123.90984 629.91162 4278715650
-21.722837 -123.94276 629.9989 4278650114
-21.357222 -123.93266 630.04779 4278715649
-21.015728 -123.95935 630.09821 4278781185
-20.649723 -123.94881 630.1322 4278781186
-20.30677 -123.9681 630.15027 4278846722
-19.939646 -123.94813 630.14233 4278846722
-19.595284 -123.95591 630.10742 4278912514
-19.227533 -123.92847 630.06989 4279043843
-18.88204 -123.93176 630.00659 4279109635
-18.514833 -123.90389 629.94427 4279240707
-18.168835 -123.91312 629.88788 4279699970
-17.802969 -123.88715 629.83508 4280027908
-17.456558 -123.89488 629.79675 4280093698
-17.091915 -123.87136 629.75568 4280159235
-16.745249 -123.88004 629.724 4280159748
-16.380161 -123.85329 629.68579 4280356101
-16.033724 -123.86727 629.6709 4280487683
-15.669308 -123.84045 629.6463 4280618503
-15.3234 -123.85391 629.63898 4280749827
-14.958987 -123.83544 629.61871 4280815877
-14.612847 -123.85362 629.61761 4280816133
-14.249087 -123.83401 629.59412 4280685064
-13.902981 -123.85297 629.58008 4280750858
-13.538314 -123.82942 629.55133 4280619787
-13.192262 -123.83954 629.53625 4280292107
-12.827321 -123.8103 629.50403 4280161032
-12.481862 -123.82452 629.48669 4280161289
-12.117011 -123.8017 629.46216 4280292619
-11.77219 -123.8185 629.45203 4280555278
-11.407046 -123.79713 629.43311 4280621583
-11.062633 -123.81696 629.42444 4280687378
-10.697701 -123.79478 629.41876 4281147926
-10.353152 -123.81237 629.41675 4281279769
-9.988266 -123.79411 629.41296 4280820242
-9.6435595 -123.80754 629.4115 4280754454
-9.2790251 -123.77729 629.4118 4281215519
-8.9334669 -123.79717 629.40521 4281806631
-8.5689459 -123.78935 629.39764 4280625180
-8.223196 -123.81609 629.39343 4280229913
-7.8595281 -123.79916 629.40411 4280951840
-7.5133595 -123.80773 629.40955 4281541923
-7.1500974 -123.78222 629.43323 4281411361
-6.8043456 -123.8097 629.45612 4280622608
-6.4416466 -123.80235 629.49017 4280228367
-6.0945172 -123.82407 629.51202 4280098064
-5.7323642 -123.81887 629.53394 4279835149
-5.3834195 -123.84005 629.54059 4279768074
-5.0216122 -123.81384 629.53363 4279898638
-4.6720262 -123.81366 629.479 4279307014
-4.3099685 -123.77828 629.38916 4278781443
-3.9606419 -123.76654 629.26227 4278519043
-3.5986929 -123.70875 629.09448 4278452993
-3.2494929 -123.68468 628.89899 4278387458
-2.8880565 -123.63551 628.69299 4278584322
-2.5397935 -123.62521 628.49158 4278716164
-2.1789238 -123.57372 628.31598 4279307785
-1.8317264 -123.557 628.17249 4279899152
-1.472363 -123.52044 628.09247 4280162578
-1.1250366 -123.5257 628.04779 4280491029
-0.76596379 -123.50375 628.06219 4280557590
-0.41696298 -123.53495 628.11304 4280819737
-0.056814924 -123.55341 628.22723 4280163090
0.2928513 -123.59322 628.33124 4279636493
0.6535567 -123.59306 628.47083 4279241221
1.0030994 -123.62735 628.57574 4278781699
1.3631241 -123.63394 628.68451 4278912515
1.7126938 -123.66093 628.73541 4279043844
2.0716414 -123.64854 628.78632 4278912516
2.4215002 -123.66991 628.79651 4278781187
2.7802713 -123.6584 628.80957 4278715651
3.1300306 -123.66756 628.79602 4278715908
3.4887371 -123.6526 628.81177 4278781444
3.8390114 -123.67424 628.81665 4278912772
4.1974711 -123.66363 628.84143 4279043845
4.5479522 -123.68262 628.85559 4279044100
4.9063458 -123.67024 628.88489 4278978308
5.257134 -123.6894 628.90186 4278846979
5.6152477 -123.67691 628.92596 4278846723
5.966351 -123.69801 628.94287 4278912516
6.3244643 -123.68682 628.97668 4279043588
6.6760221 -123.70989 629.01202 4279043588
7.034194 -123.70212 629.06531 4278978051
7.386281 -123.72865 629.11859 4278912515
7.7443094 -123.72079 629.17261 4278977795
8.0964317 -123.74799 629.21332 4278912516
8.4538813 -123.7371 629.22668 4278912516
8.8055048 -123.75181 629.21167 4278846723
9.1618423 -123.72375 629.16412 4278781187
9.512536 -123.72189 629.08197 4278912259
9.8673077 -123.68252 628.96594 4278978053
10.217322 -123.67583 628.84174 4279043845
10.571038 -123.63013 628.69843 4279044102
10.920528 -123.62197 628.56555 4279175431
-26.017641 -123.55467 630.27716 4278386945
-25.302164 -123.52943 630.15729 4278452993
-24.58684 -123.52075 630.02441 4278518530
-23.875038 -123.49436 629.99487 4278518529
-23.499146 -123.58871 630.01031 4278649857
-23.167641 -123.5028 630.07526 4278584321
-22.792484 -123.60431 630.11267 4278584321
-22.461374 -123.52473 630.18695 4278584321
-22.085066 -123.62505 630.21289 4278518529
-21.754927 -123.55478 630.29535 4278518529
-21.378326 -123.65456 630.33173 4278518529
-21.047043 -123.56694 630.38019 4278584065
-20.671755 -123.66141 630.45483 4278649857
-20.340933 -123.58952 630.52478 4278649857
-19.964296 -123.69348 630.56348 4278715394
-19.631319 -123.59714 630.5564 4278846722
-19.252577 -123.68077 630.54315 4278846722
-18.917761 -123.57397 630.4585 4278977795
-18.536707 -123.64787 630.36743 4278978050
-18.201962 -123.53532 630.28577 4279305986
-17.821882 -123.61457 630.21167 4279502851
-17.487728 -123.51033 630.14856 4279699459
-17.108536 -123.59198 630.08429 4279568641
-16.773758 -123.48504 630.01147 4279634434
-16.394888 -123.56584 629.95117 4279568899
-16.061047 -123.46224 629.90924 4279765507
-15.68261 -123.54581 629.86584 4280027908
-15.349619 -123.44724 629.8465 4280093444
-14.971781 -123.53572 629.82831 4280093957
-14.63888 -123.43814 629.81281 4280093956
-14.261117 -123.52724 629.77936 4280159749
-13.928282 -123.43382 629.75751 4280160006
-13.549764 -123.5212 629.71613 4280094470
-13.21726 -123.42116 629.6933 4279963399
-12.838802 -123.50085 629.65009 4279766790
-12.507017 -123.40169 629.62744 4279767047
-12.127237 -123.48792 629.5921 4280226826
-11.796804 -123.39178 629.57397 4280293132
-11.417582 -123.48017 629.54456 4280687120
-11.087605 -123.387 629.52887 4280688145
-10.70771 -123.4734 629.5108 4281409812
-10.3782 -123.37984 629.50159 4281017362
-9.9987574 -123.47039 629.48425 4281213714
-9.6690922 -123.37347 629.47675 4280427026
-9.2894278 -123.45403 629.46075 4281083419
-8.959301 -123.35594 629.44501 4281414178
-8.5793724 -123.44983 629.42316 4281872160
-8.2502861 -123.36579 629.41162 4280822042
-7.8701172 -123.45921 629.41028 4282134051
-7.5411558 -123.35686 629.41296 4282989866
-7.1602736 -123.44675 629.42944 4282988588
-6.8322382 -123.36372 629.4516 4281675287
-6.4511614 -123.46532 629.48212 4281214740
-6.1227746 -123.37759 629.50696 4281280282
-5.7402616 -123.4751 629.52893 4281280280
-5.4121375 -123.3895 629.54089 4280425998
-5.028585 -123.47045 629.52905 4280292876
-4.7011371 -123.36047 629.47534 4279439112
-4.3163691 -123.43152 629.37152 4278913284
-3.9899032 -123.31494 629.23499 4278584579
-3.604712 -123.36688 629.04547 4278518529
-3.2790935 -123.23255 628.83679 4278452994
-2.8936532 -123.28455 628.61151 4278715648
-2.5691688 -123.15192 628.39575 4278913541
-2.1850669 -123.20322 628.21082 4279636492
-1.8616738 -123.07914 628.05951 4280096527
-1.4780347 -123.15489 627.97638 4280162063
-1.1554434 -123.05443 627.92694 4280294160
-0.77191532 -123.14687 627.9447 4280557075
-0.44898212 -123.07127 627.99695 4280623380
-0.061964329 -123.18893 628.11694 4280491541
0.26102206 -123.1162 628.22809 4280162062
0.64798826 -123.23158 628.37201 4279700999
0.97070611 -123.16751 628.48108 4279044099
1.3579242 -123.27778 628.58453 4278978563
1.6802545 -123.19096 628.62982 4278847492
2.0664475 -123.28878 628.66675 4278912772
2.3884966 -123.19675 628.66583 4278912773
2.7750144 -123.28632 628.66455 4278847237
3.0966809 -123.18636 628.64014 4278913030
3.4836037 -123.28265 628.64978 4278847493
3.8049686 -123.1934 628.64587 4279044102
4.1918716 -123.29135 628.67004 4279241223
4.5134206 -123.19849 628.67639 4279306758
4.9005232 -123.29463 628.70801 4279240966
5.2219524 -123.20489 628.71741 4279240709
5.6095171 -123.30336 628.74713 4279109636
5.9305687 -123.21094 628.75439 4279174917
6.3191209 -123.30923 628.78943 4279174916
6.639544 -123.22162 628.81213 4279174917
7.0286236 -123.32401 628.86365 4279043844
7.3491921 -123.23692 628.89844 4279109380
7.7384644 -123.33647 628.95148 4279174916
8.0586042 -123.25175 628.97943 4279043588
8.4478893 -123.3531 628.99817 4278912516
8.7669725 -123.25788 628.979 4278846980
9.1558952 -123.33965 628.94519 4278912516
9.4739628 -123.23303 628.87439 4278912516
9.862257 -123.30727 628.78723 4279044100
10.179245 -123.19669 628.68878 4279044101
10.566852 -123.27121 628.58704 4279241223
10.883876 -123.15678 628.48584 4279438345
-23.86643 -123.29598 630.33752 4278387200
-23.496817 -123.27044 630.2951 4278387200
-23.156069 -123.29195 630.35168 4278387200
-22.787922 -123.27184 630.3468 4278387201
-22.447321 -123.3056 630.41748 4278387201
-22.07951 -123.29399 630.42346 4278387200
-21.739342 -123.32797 630.50128 4278387200
-21.37245 -123.31839 630.53278 4278452737
-21.030552 -123.3433 630.57739 4278452737
-20.666191 -123.34091 630.66583 4278452736
-20.324921 -123.36716 630.75256 4278518529
-19.961077 -123.36756 630.85583 4278649602
-19.617641 -123.39303 630.86835 4278780930
-19.251585 -123.3803 630.90479 4278780930
-18.905367 -123.3792 630.83801 4278846466
-18.536926 -123.34662 630.7616 4278977795
-18.188692 -123.34499 630.65399 4279240450
-17.821501 -123.31305 630.58325 4279240451
-17.473076 -123.31223 630.49023 4279305986
-17.106419 -123.28045 630.40149 4279371523
-16.757742 -123.27686 630.30396 4279437314
-16.391027 -123.24133 630.22034 4279371521
-16.04351 -123.24738 630.16541 4279437312
-15.677827 -123.22131 630.11243 4279502594
-15.331491 -123.23004 630.08826 4279568386
-14.966621 -123.20834 630.07007 4279699714
-14.620215 -123.22097 630.05304 4279765507
-14.255303 -123.19819 630.0108 4279831044
-13.909127 -123.21294 629.9823 4279831300
-13.543406 -123.18416 629.92889 4279831558
-13.197462 -123.1938 629.89917 4279700486
-12.831498 -123.16384 629.84174 4279634950
-12.485862 -123.17425 629.81042 4279504133
-12.120358 -123.14609 629.7594 4279635719
-11.774996 -123.15962 629.73383 4279701768
-11.409472 -123.13095 629.68707 4279833354
-11.064548 -123.14387 629.6637 4279899404
-10.699353 -123.11941 629.63312 4280228110
-10.354406 -123.13892 629.61743 4280293645
-9.9891548 -123.12125 629.59082 4280425231
-9.6440516 -123.12916 629.578 4279770126
-9.2794819 -123.08934 629.55267 4279704848
-8.9344845 -123.10475 629.52997 4280296217
-8.5694561 -123.09005 629.49713 4280427543
-8.2250099 -123.11205 629.47961 4279837205
-7.8602915 -123.08726 629.46912 4280889114
-7.5161419 -123.0997 629.4707 4282269228
-7.1513877 -123.07901 629.48108 4282006818
-6.8071227 -123.10891 629.50195 4281676317
-6.4439707 -123.09743 629.52869 4281807132
-6.0972943 -123.12088 629.55249 4282265378
-5.7345347 -123.11286 629.57184 4281806107
-5.3851628 -123.13175 629.58282 4280885524
-5.0226521 -123.0999 629.57367 4279900171
-4.6726346 -123.09955 629.51642 4279177225
-4.310082 -123.06213 629.41089 4278913284
-3.960511 -123.05572 629.26428 4278519299
-3.5985644 -123.00559 629.06195 4278518785
-3.2491512 -122.97938 628.84235 4278453250
-2.8877277 -122.90968 628.59918 4278650114
-2.5393698 -122.87499 628.38019 4278848261
-2.178396 -122.81284 628.17871 4279308553
-1.831943 -122.80526 628.0321 4279834125
-1.4716611 -122.77226 627.93927 4279965967
-1.1257528 -122.78429 627.896 4280097039
-0.76615387 -122.76711 627.9046 4280163089
-0.41858596 -122.80067 627.96503 4280491282
-0.057334468 -122.80585 628.07654 4280491793
0.29185379 -122.84027 628.19507 4280424463
0.65201104 -122.84702 628.33246 4279832331
1.0013655 -122.89587 628.44482 4279109891
1.3620877 -122.89974 628.53729 4279175171
1.711187 -122.91904 628.57904 4279110151
2.0703094 -122.90211 628.6062 4278978822
2.4196846 -122.91962 628.60291 4278913286
2.7786551 -122.89886 628.59119 4279044615
3.1284847 -122.9076 628.56604 4279044615
3.4862473 -122.89529 628.5683 4279109637
3.8364301 -122.91318 628.56055 4279175685
4.1938763 -122.89635 628.57397 4279569159
4.5445356 -122.91248 628.57843 4279832073
4.9022188 -122.90187 628.60077 4279766280
5.2527161 -122.92255 628.60876 4279700230
5.6105156 -122.90697 628.62842 4279634439
5.9615626 -122.92204 628.6344 4279568902
6.3190422 -122.90819 628.65607 4279568646
6.6709733 -122.93082 628.67523 4279437830
7.0285649 -122.92187 628.71222 4279372037
7.3810258 -122.94223 628.74481 4279503366
7.7384105 -122.93009 628.78534 4279372039
8.0907202 -122.95566 628.81317 4279109381
8.4479122 -122.94608 628.8277 4278978052
8.7994747 -122.96128 628.8194 4278978309
9.1558218 -122.93721 628.79395 4279109382
9.5069447 -122.94286 628.74432 4279109638
9.8623867 -122.91346 628.68048 4279109894
10.212586 -122.91658 628.61163 4279175687
10.567619 -122.88448 628.53442 4279438601
10.917123 -122.88907 628.46106 4279766795
-19.99127 -123.14668 631.44946 4278387201
-19.65519 -123.03764 631.36377 4278452737
-19.27552 -123.11841 631.32312 4278518529
-18.939461 -123.00737 631.20959 4278649602
-18.557442 -123.07447 631.11182 4278780930
-18.221037 -122.94734 630.97369 4278846722
-17.83938 -123.02679 630.88428 4278977794
-17.503939 -122.91312 630.76062 4279043330
-17.12178 -122.98697 630.64697 4279109122
-16.785986 -122.86613 630.49872 4279174658
-16.404842 -122.94454 630.42603 4279109122
-16.071825 -122.83759 630.36267 4279240194
-15.691822 -122.92495 630.34674 4279174658
-15.360941 -122.83094 630.34998 4279305730
-14.982266 -122.92768 630.3808 4279305984
-14.650633 -122.82812 630.34625 4279371522
-14.270281 -122.91364 630.302 4279371777
-13.938554 -122.81394 630.26489 4279437571
-13.557492 -122.89337 630.198 4279503365
-13.226262 -122.79642 630.16467 4279503365
-12.84543 -122.87659 630.09924 4279372550
-12.514713 -122.77749 630.06549 4279372549
-12.132689 -122.854 630.00098 4279307269
-11.803326 -122.75319 629.96613 4279241734
-11.421656 -122.83239 629.9054 4279307782
-11.092269 -122.73454 629.87158 4279570184
-10.710581 -122.81605 629.82495 4279636490
-10.381342 -122.72483 629.80066 4279898634
-10.000858 -122.81462 629.76221 4279767562
-9.6707029 -122.71074 629.74268 4279636491
-9.2905025 -122.78354 629.70593 4278981642
-8.9603176 -122.68423 629.67627 4279309069
-8.5797491 -122.77677 629.63318 4279309065
-8.2507534 -122.68588 629.60883 4279900172
-7.8696818 -122.76881 629.58649 4280427534
-7.5417824 -122.66848 629.58447 4280494351
-7.1597662 -122.76089 629.58429 4281281553
-6.8330917 -122.67841 629.60083 4281084690
-6.451479 -122.77325 629.61658 4281609493
-6.1238465 -122.68343 629.63708 4281937943
-5.7410536 -122.78137 629.6441 4282066455
-5.413054 -122.69277 629.65332 4281213202
-5.0295105 -122.77102 629.62988 4279768587
-4.7018104 -122.66254 629.57196 4279045639
-4.316802 -122.72946 629.453 4278913283
-3.9902077 -122.61456 629.3042 4278650371
-3.6048689 -122.67514 629.08704 4278650114
-3.2791057 -122.5437 628.86829 4278584322
-2.8935454 -122.57352 628.61615 4278715649
-2.5690641 -122.42619 628.39795 4278847491
-2.1844888 -122.47462 628.19421 4279241989
-1.8607382 -122.35539 628.04633 4279374343
-1.4771985 -122.43333 627.94714 4279965452
-1.1545283 -122.33578 627.89856 4280031246
-0.77169544 -122.4295 627.90271 4280096782
-0.44842586 -122.3549 627.95929 4280885011
-0.062693864 -122.46352 628.06415 4281213207
0.26060238 -122.38665 628.18359 4280818190
0.64704657 -122.50251 628.31531 4279635461
0.96952289 -122.44868 628.42743 4279306501
1.3569088 -122.55737 628.50867 4279700745
1.6789455 -122.46642 628.54614 4279635980
2.0652387 -122.55552 628.55969 4279045385
2.3870075 -122.45956 628.54803 4279110664
2.7730861 -122.54228 628.52313 4279241992
3.095098 -122.44382 628.49237 4279372552
3.4814253 -122.54121 628.48938 4279569416
3.8027122 -122.45107 628.47571 4279766537
4.1888971 -122.54239 628.48987 4280160267
4.510406 -122.4463 628.49243 4280422667
4.8970561 -122.54607 628.51776 4280422410
5.218811 -122.46021 628.52173 4279962888
5.6056676 -122.55155 628.54077 4279897608
5.9267654 -122.45438 628.53809 4279897353
6.3148704 -122.54831 628.55267 4279897353
6.6354799 -122.45882 628.55762 4279897097
7.0239587 -122.55709 628.58716 4279831560
7.3446817 -122.46783 628.60712 4279569159
7.7331777 -122.56603 628.64441 4279306759
8.0537291 -122.47883 628.66632 4279175431
8.4421883 -122.5788 628.68713 4278978823
8.7620564 -122.48745 628.68359 4279175176
9.1502218 -122.57508 628.67395 4279240967
9.4696808 -122.47327 628.63763 4279241224
9.8576298 -122.5573 628.59833 4279110664
10.176088 -122.45553 628.54602 4279307529
10.563432 -122.53841 628.49365 4279504650
10.882045 -122.43338 628.43475 4279702028
-19.272505 -122.804 631.61786 4278321410
-18.553366 -122.74528 631.36261 4278452737
-18.202894 -122.73194 631.17181 4278584065
-17.833847 -122.69365 631.08783 4278649601
-17.484999 -122.68608 630.94843 4278715393
-17.115116 -122.6435 630.82428 4278846465
-16.766012 -122.62761 630.66626 4278912258
-16.39752 -122.59396 630.58014 4278912258
-16.051996 -122.61002 630.55365 4278977794
-15.686493 -122.59398 630.56714 4279043330
-15.342749 -122.61915 630.6203 4279043330
-14.978371 -122.61066 630.67688 4279108866
-14.633038 -122.62672 630.67145 4279109122
-14.26637 -122.60046 630.61066 4279174914
-13.919967 -122.61015 630.57703 4279174915
-13.553251 -122.57472 630.49847 4279174915
-13.206777 -122.5844 630.46265 4279109379
-12.8404 -122.55691 630.38849 4279109636
-12.494039 -122.56539 630.34882 4279109892
-12.128071 -122.5295 630.27057 4279109892
-11.781786 -122.53854 630.22986 4279110148
-11.41597 -122.50842 630.15442 4279175685
-11.069925 -122.515 630.11249 4279241478
-10.704517 -122.48252 630.05188 4279438599
-10.358276 -122.50015 630.01819 4279766536
-9.9931192 -122.48293 629.97198 4279766794
-9.6469097 -122.48643 629.94489 4279504391
-9.2823105 -122.44289 629.90326 4279110662
-8.9362049 -122.45458 629.86749 4279176455
-8.5715675 -122.43737 629.81812 4279241991
-8.2257318 -122.45561 629.78595 4279439623
-7.8614268 -122.42856 629.75647 4279571208
-7.5159683 -122.43216 629.74786 4279571716
-7.1517696 -122.40856 629.73901 4279703560
-6.8063154 -122.43553 629.74677 4279770379
-6.443634 -122.41918 629.75226 4280164619
-6.0966716 -122.44093 629.76135 4281345810
-5.7338824 -122.42841 629.75623 4281279508
-5.3853865 -122.44808 629.75476 4280752655
-5.0225115 -122.41926 629.72504 4279439623
-4.673337 -122.41709 629.65918 4278848262
-4.3103757 -122.3713 629.53766 4278781699
-3.9611828 -122.36263 629.38281 4278650371
-3.5989993 -122.31588 629.16223 4278650114
-3.2495911 -122.2932 628.94513 4278584578
-2.8879516 -122.21635 628.69135 4278649858
-2.5391698 -122.17991 628.48523 4278715906
-2.1779697 -122.11929 628.27832 4278913027
-1.8308847 -122.11144 628.14026 4279044868
-1.4702029 -122.07169 628.0318 4279439367
-1.1238024 -122.08418 627.98401 4279702540
-0.76449043 -122.06703 627.97168 4280096782
-0.41728577 -122.09892 628.02466 4281081109
-0.056798611 -122.09666 628.10803 4281345050
0.29199919 -122.12842 628.22302 4280949007
0.65070236 -122.13349 628.33942 4279569668
0.99988395 -122.1871 628.44818 4279372806
1.3608238 -122.18783 628.51654 4280226831
1.709796 -122.20358 628.552 4280161297
2.0690219 -122.18084 628.56049 4279374091
2.4185119 -122.19443 628.54895 4279176970
2.7778933 -122.16958 628.51801 4279307527
3.1275277 -122.18069 628.48883 4279372807
3.4846904 -122.16649 628.47888 4280029196
3.8347254 -122.18167 628.45996 4280816655
4.1912713 -122.16381 628.46307 4280751888
4.5418196 -122.17822 628.4635 4281013262
4.898912 -122.16286 628.47809 4280816654
5.2494683 -122.18323 628.48145 4280422410
5.6070986 -122.1671 628.49225 4280291338
5.9580898 -122.18225 628.49182 4280226059
6.3154078 -122.16606 628.49542 4280226060
6.6671052 -122.18499 628.4975 4280356620
7.0241823 -122.16842 628.51355 4280356878
7.3765888 -122.18658 628.52979 4279897353
7.7333055 -122.17488 628.55481 4279438087
8.0857115 -122.19961 628.57703 4279307528
8.4427748 -122.18952 628.59589 4279372809
8.7942638 -122.20702 628.60162 4279372809
9.150876 -122.18638 628.59961 4279569676
9.5022116 -122.1993 628.57935 4279438858
9.8586159 -122.17759 628.55536 4279373321
10.208835 -122.18667 628.52191 4279373835
10.564826 -122.15999 628.48303 4279570700
10.914932 -122.16995 628.43988 4279833614
-16.073696 -122.14027 630.46515 4278649857
-15.701377 -122.29234 630.7749 4278715393
-15.371396 -122.20415 630.81781 4278780930
-14.994143 -122.31959 630.91919 4278846466
-14.662717 -122.22135 630.87909 4278912258
-14.280832 -122.30505 630.83026 4278912258
-13.950289 -122.20599 630.82208 4278912259
-13.56811 -122.28049 630.76331 4278912259
-13.238199 -122.19614 630.76819 4278912515
-12.856012 -122.28029 630.71875 4278912772
-12.526218 -122.18484 630.70886 4278912772
-12.143093 -122.25623 630.6142 4278912771
-11.812985 -122.15298 630.56683 4278978308
-11.430111 -122.22921 630.4762 4278978565
-11.100139 -122.12792 630.42963 4278978821
-10.71781 -122.20052 630.35455 4279044614
-10.387837 -122.10373 630.31512 4279241478
-10.00613 -122.19239 630.26025 4279438343
-9.6761684 -122.09014 630.22729 4279110149
-9.2945852 -122.16179 630.17474 4278716419
-8.9648848 -122.06027 630.13446 4278716420
-8.5830488 -122.14983 630.07526 4278913540
-8.254096 -122.05715 630.0368 4279044613
-7.8721204 -122.13512 629.99432 4278782212
-7.5437665 -122.02538 629.97809 4279044614
-7.1613412 -122.10299 629.95319 4278849287
-6.8341036 -122.01158 629.94946 4279242759
-6.4520421 -122.11536 629.93555 4278981124
-6.1244402 -122.03193 629.93103 4279440389
-5.741168 -122.11779 629.90375 4279702535
-5.4137573 -122.02023 629.89032 4279505160
-5.0298171 -122.10067 629.83734 4278782981
-4.7026086 -121.99326 629.76245 4278847493
-4.3173656 -122.0502 629.62799 4278650370
-3.9910703 -121.92972 629.4754 4278650115
-3.6057117 -121.99146 629.25513 4278650114
-3.27988 -121.8667 629.0495 4278584578
-2.8943076 -121.90024 628.80652 4278649858
-2.5693619 -121.75805 628.61163 4278715394
-2.1846886 -121.80517 628.41699 4278650113
-1.8603749 -121.68797 628.28326 4278781699
-1.4764457 -121.76479 628.17249 4278913539
-1.1531589 -121.6629 628.1181 4279111174
-0.7697286 -121.75057 628.09583 4279637002
-0.44642451 -121.67001 628.13489 4280490510
-0.061283935 -121.77245 628.198 4280883730
0.2618123 -121.69477 628.29883 4280096267
0.64763045 -121.80648 628.39642 4279373317
0.96999747 -121.75067 628.49353 4279898122
1.3567812 -121.85082 628.54724 4280686098
1.6786215 -121.75482 628.57745 4280489744
2.0651438 -121.8432 628.57379 4279439627
2.3866162 -121.75009 628.55518 4279242249
2.7721913 -121.83128 628.51263 4279373319
3.0945835 -121.73318 628.47797 4279241992
3.4798608 -121.82396 628.45947 4279898891
3.8016746 -121.72829 628.43683 4280818705
4.186408 -121.81953 628.43896 4281473555
4.5086579 -121.72642 628.44171 4281211152
4.8942842 -121.82084 628.45825 4281145360
5.2164917 -121.73232 628.46265 4281079566
5.6026139 -121.82423 628.47296 4280882702
5.9240923 -121.73133 628.4696 4280488973
6.3114533 -121.82178 628.46716 4280488974
6.6324573 -121.73019 628.46063 4280554511
7.0200133 -121.82224 628.46899 4280685328
7.341135 -121.73022 628.47791 4280160525
7.7286949 -121.82522 628.49786 4279701515
8.0497952 -121.74049 628.5174 4279898381
8.4376411 -121.84033 628.54016 4280095503
8.7580843 -121.75131 628.55237 4279964430
9.1460829 -121.8409 628.55981 4279898638
9.4661751 -121.74498 628.54932 4279833358
9.8543425 -121.83442 628.53949 4279767822
10.17335 -121.73792 628.51355 4279833614
10.561069 -121.8227 628.4856 4279702286
10.880658 -121.72218 628.4469 4279964687
-15.698692 -121.97936 631.09491 4278452737
-15.355467 -122.01112 631.1723 4278452993
-14.98785 -121.97896 631.11957 4278584065
-14.643433 -122.00566 631.14343 4278649601
-14.274796 -121.96799 631.01532 4278715394
-13.929228 -121.98277 631.02954 4278715394
-13.56259 -121.94842 630.96649 4278715394
-13.217475 -121.97021 631.01001 4278715650
-12.851381 -121.94693 630.96167 4278715651
-12.505602 -121.97196 630.98761 4278781443
-12.139211 -121.93896 630.9043 4278781444
-11.792449 -121.94918 630.88715 4278846723
-11.426309 -121.91718 630.7959 4278912517
-11.07937 -121.92607 630.77496 4278846980
-10.713845 -121.89075 630.6955 4278781700
-10.36619 -121.90108 630.64642 4278978564
-10.001335 -121.87911 630.58838 4279044101
-9.6536503 -121.88329 630.54028 4278847236
-9.289031 -121.84465 630.47772 4278650114
-8.9417696 -121.85106 630.42438 4278650370
-8.5771637 -121.82993 630.3559 4278781443
-8.2300501 -121.84371 630.30219 4278978308
-7.8655672 -121.81488 630.25317 4278912515
-7.5191131 -121.81129 630.2254 4278847236
-7.1548686 -121.77614 630.18866 4278847491
-6.8082714 -121.79082 630.17358 4278978820
-6.4452209 -121.77221 630.14441 4278978819
-6.0977492 -121.79796 630.12177 4279110400
-5.7347078 -121.77573 630.073 4279176452
-5.3864202 -121.78248 630.04144 4279176710
-5.0232301 -121.75288 629.97198 4278979334
-4.6743245 -121.75097 629.88782 4278650627
-4.3114491 -121.69839 629.74884 4278584579
-3.9623904 -121.68823 629.60077 4278519042
-3.6001222 -121.64194 629.38605 4278584578
-3.2506959 -121.62652 629.19495 4278650114
-2.888941 -121.55829 628.96234 4278649858
-2.5397596 -121.53056 628.789 4278649858
-2.1787605 -121.47399 628.60339 4278715650
-1.8306571 -121.46648 628.48499 4278715906
-1.4702462 -121.42587 628.37201 4278715905
-1.1226193 -121.43535 628.31738 4278716675
-0.763264 -121.41085 628.27789 4279045125
-0.41542858 -121.43076 628.30109 4279505159
-0.055482432 -121.42219 628.33698 4279833352
0.29317954 -121.45456 628.41541 4279570696
0.65142632 -121.45798 628.49152 4279307782
1.0005009 -121.50072 628.57166 4279833099
1.360845 -121.4848 628.61322 4280424464
1.7098608 -121.49577 628.63635 4280029965
2.0690258 -121.47966 628.63159 4279439370
2.4184804 -121.49874 628.61127 4279242249
2.7774689 -121.4738 628.56836 4279373320
3.1267681 -121.48202 628.53406 4279045896
3.4836082 -121.45954 628.51019 4279768328
3.8329775 -121.47027 628.48419 4281147412
4.1894026 -121.44941 628.47498 4281606424
4.5393543 -121.46742 628.4743 4281539347
4.8970327 -121.45202 628.47931 4281211663
5.2472329 -121.47169 628.48126 4281276945
5.6050706 -121.45325 628.48376 4281210897
5.9558611 -121.46865 628.48279 4280751632
6.3131013 -121.44873 628.47382 4280620559
6.6646638 -121.4657 628.46729 4280620817
7.0212979 -121.44693 628.46753 4280752145
7.3736787 -121.46553 628.47327 4280554768
7.7300315 -121.45155 628.48218 4280227087
8.0824261 -121.47351 628.50031 4280489746
8.4399691 -121.45966 628.51758 4280687125
8.7908373 -121.48054 628.53442 4280424468
9.1482515 -121.46352 628.54291 4280096528
9.4992228 -121.48011 628.54352 4280096529
9.8564816 -121.46099 628.5401 4280096528
10.206613 -121.47552 628.52527 4280096528
10.563176 -121.45124 628.50146 4279965198
10.914055 -121.46344 628.47241 4280096015
-13.249231 -121.58915 631.33319 4278518530
-12.865999 -121.66311 631.24731 4278518786
-12.53624 -121.56486 631.24701 4278584322
-12.152969 -121.64382 631.16101 4278649859
-11.823214 -121.55048 631.14258 4278715651
-11.43937 -121.62869 631.04004 4278715652
-11.110671 -121.53944 631.05994 4278715652
-10.727379 -121.60859 631.01019 4278584579
-10.398582 -121.51902 631.00024 4278715908
-10.015638 -121.60934 630.97174 4278781444
-9.6868095 -121.50897 630.94708 4278715908
-9.3027639 -121.58248 630.8623 4278519042
-8.9738417 -121.4809 630.80493 4278649858
-8.5898046 -121.56001 630.71686 4278650114
-8.2611275 -121.45871 630.65216 4278650114
-7.8773327 -121.53223 630.58405 4278715650
-7.5494227 -121.42614 630.54803 4278650114
-7.1652393 -121.50029 630.48816 4278519042
-6.8381705 -121.40218 630.46747 4278584578
-6.4546027 -121.48403 630.41699 4278650627
-6.1270161 -121.39199 630.38104 4278913798
-5.7433906 -121.47707 630.30609 4279111434
-5.4158263 -121.37286 630.26141 4279439370
-5.0315952 -121.44597 630.1651 4279373322
-4.7043023 -121.33343 630.0722 4278913285
-4.3191772 -121.39032 629.92163 4278584578
