# .PCD v0.7 - Point Cloud Data file format
VERSION 0.7
FIELDS x y z rgb
SIZE 4 4 4 4
TYPE F F F U
COUNT 1 1 1 1
WIDTH 1148
HEIGHT 1
VIEWPOINT 0 0 0 0 0 0 1
POINTS 1148
DATA ascii
11.974021 -106.91495 628.76703 4279307528
12.291211 -106.82375 628.73193 4279374346
12.682201 -106.91255 628.77533 4279768337
13.000196 -106.83115 628.83392 4279833104
13.393809 -106.94912 628.98505 4278979594
13.715015 -106.90207 629.16132 4279045899
14.112709 -107.02863 629.47455 4278260744
14.439709 -106.99142 629.8783 4278522119
14.839767 -107.12888 630.2337 4279701001
15.168644 -107.11246 630.68457 4280157444
15.566224 -107.25445 630.89685 4279043844
15.887896 -107.18782 631.05273 4278781187
8.1412716 -107.34813 633.44574 4278321665
8.4796629 -107.0739 631.9079 4278387201
8.8257141 -107.0084 631.43817 4278452994
9.1764736 -106.91512 630.97644 4278452994
9.5216999 -106.83969 630.46564 4278452994
9.872117 -106.75569 630.03857 4278518786
10.219234 -106.71427 629.69543 4278518787
10.570323 -106.64803 629.38104 4278452993
10.918736 -106.61414 629.1416 4278453250
11.271138 -106.5664 628.95117 4278715907
11.620839 -106.56074 628.81787 4279110150
11.975748 -106.54295 628.7702 4279504651
12.326803 -106.55456 628.74951 4279504651
12.684356 -106.55228 628.80536 4279505677
13.037151 -106.58035 628.89215 4279702803
13.397204 -106.59475 629.06744 4279374608
13.753605 -106.63864 629.26819 4279571731
14.115939 -106.67079 629.58875 4279309066
14.479648 -106.75025 629.99518 4279439104
14.842671 -106.78267 630.336 4279175168
15.207692 -106.8573 630.75677 4278847235
15.567636 -106.90119 630.96283 4278912516
15.927037 -106.93133 631.10834 4278649859
8.1122313 -106.97701 633.88452 4278255873
8.7890749 -106.54404 631.32758 4278387457
9.1738358 -106.56322 630.93219 4278452993
9.4878006 -106.41131 630.5636 4278452993
9.8706112 -106.41887 630.10303 4278518530
10.184038 -106.27943 629.73816 4278518786
10.56842 -106.3126 629.40167 4278387457
10.882577 -106.17433 629.14191 4278518530
11.269019 -106.21976 628.93744 4278715907
11.584419 -106.11207 628.79388 4279044614
11.973086 -106.19502 628.74756 4279570188
12.29075 -106.10954 628.73212 4279569931
12.68243 -106.20845 628.80432 4279110665
13.001502 -106.14152 628.90918 4278914313
13.396194 -106.26205 629.11359 4279242508
13.719134 -106.21078 629.33704 4280358932
14.117715 -106.34321 629.67743 4279833873
14.444919 -106.31493 630.09192 4279176710
14.844763 -106.45239 630.42755 4279306756
15.172172 -106.43604 630.83966 4278846979
15.569692 -106.56915 631.0448 4278781186
15.890451 -106.50306 631.1825 4278649859
8.4840221 -106.41816 632.26288 4278321665
8.8298559 -106.3469 631.75598 4278387201
9.1793804 -106.24492 631.22302 4278452738
9.5243063 -106.15749 630.66956 4278452993
9.8736486 -106.05734 630.17413 4278518786
10.22015 -106.01486 629.78552 4278518786
10.570625 -105.95062 629.42773 4278452994
10.918336 -105.91 629.15521 4278453250
11.270389 -105.85185 628.93658 4278650115
11.62003 -105.84055 628.78912 4278913028
11.974715 -105.82512 628.74225 4279176201
12.3265 -105.84137 628.74097 4279241737
12.68434 -105.84301 628.82623 4279044615
13.038553 -105.87558 628.95807 4278848005
13.399367 -105.89775 629.185 4279045129
13.757658 -105.95368 629.44 4279832847
14.121099 -105.994 629.79156 4279570444
14.484991 -106.0744 630.22144 4279306244
14.848537 -106.11782 630.5592 4279109380
15.213647 -106.20633 631.00647 4278846722
15.574255 -106.23826 631.23132 4278715394
15.932851 -106.27325 631.37463 4278584322
8.7942381 -105.88976 631.68799 4278387201
9.1777678 -105.89676 631.21344 4278387201
9.4907293 -105.7389 630.80682 4278452993
9.8726797 -105.73154 630.26898 4278518530
10.185303 -105.58084 629.84753 4278518786
10.569018 -105.61153 629.4693 4278518786
10.882652 -105.4716 629.17065 4278518530
11.268508 -105.50975 628.9375 4278650114
11.583586 -105.39739 628.77771 4278847236
11.972465 -105.47956 628.72882 4278979079
12.290285 -105.39929 628.73212 4279176456
12.682891 -105.50574 628.83765 4279110664
13.002773 -105.44392 628.98694 4278847493
13.399124 -105.56163 629.24902 4278650883
13.72288 -105.51307 629.52924 4278716676
14.122822 -105.66706 629.92169 4278978563
14.450595 -105.65968 630.35986 4279043587
14.851791 -105.81306 630.74243 4278846723
15.180708 -105.8034 631.22577 4278780930
15.579236 -105.93409 631.45929 4278650115
15.900083 -105.86938 631.59277 4278518786
8.4941721 -105.83714 633.05914 4278321665
8.8372059 -105.71559 632.26294 4278387202
9.1822519 -105.56549 631.43958 4278387201
9.5277548 -105.48623 630.91223 4278387201
9.8758478 -105.37808 630.35498 4278452994
10.221418 -105.32011 629.90497 4278584322
10.571376 -105.24776 629.51428 4278584322
10.918462 -105.20405 629.19879 4278518786
11.270107 -105.14647 628.95551 4278715651
11.6195 -105.13355 628.79144 4278781956
11.974107 -105.11582 628.74347 4278979077
12.326754 -105.13364 628.75977 4279307529
12.68493 -105.14595 628.88269 4279176200
13.041186 -105.18407 629.05725 4278781956
13.402411 -105.20895 629.34375 4278650115
13.762781 -105.26395 629.65015 4278781699
14.126776 -105.3171 630.06177 4278781442
14.491582 -105.41099 630.51086 4278781699
14.857178 -105.47869 630.94568 4278715907
15.225745 -105.5918 631.53979 4278650114
15.58772 -105.62263 631.80841 4278650115
15.946366 -105.65907 631.94147 4278584579
8.8013182 -105.26296 632.20947 4278387201
9.1801023 -105.21464 631.40625 4278321665
9.4937305 -105.06129 631.01526 4278387201
9.8752623 -105.05225 630.45715 4278452993
10.187081 -104.88984 629.98743 4278518786
10.570553 -104.91353 629.58618 4278650115
10.883281 -104.76991 629.24152 4278650115
11.268624 -104.81042 628.98737 4278650370
11.583305 -104.69761 628.81647 4278650628
11.971897 -104.77682 628.76764 4278782470
12.290424 -104.69817 628.79004 4279176200
12.683395 -104.81175 628.92981 4279307274
13.005112 -104.75789 629.12073 4279109895
13.402867 -104.88097 629.43927 4278650372
13.728097 -104.83692 629.77081 4278584579
14.130125 -105.00352 630.23859 4278650371
14.457517 -105.00067 630.68207 4278781700
14.862775 -105.18283 631.22888 4278847237
15.185881 -105.19756 631.84784 4278715907
15.595642 -105.33611 632.15125 4278715651
9.1795588 -104.8202 631.25555 4278321665
9.5284567 -104.78442 630.97388 4278321665
9.8785353 -104.70132 630.55847 4278452993
10.223564 -104.63279 630.07428 4278584322
10.573523 -104.55617 629.66907 4278715651
10.919737 -104.50938 629.30341 4278584579
11.270552 -104.4529 629.04303 4278584579
11.62009 -104.43755 628.87012 4278716420
11.974477 -104.4197 628.82379 4279110663
12.327743 -104.43601 628.85651 4279504137
12.686483 -104.44966 629.00946 4279504653
13.043864 -104.49742 629.22467 4279175688
13.406819 -104.53362 629.56781 4278781445
13.768366 -104.59885 629.92908 4278650372
14.134536 -104.66696 630.41882 4278650115
14.49985 -104.76679 630.91034 4278715908
14.870354 -104.86486 631.54016 4278781700
15.236456 -104.95706 632.02478 4278715907
15.598632 -104.98773 632.28204 4278650372
8.7982693 -104.51797 632.02484 4278387201
9.1821947 -104.52798 631.57629 4278321665
9.4963942 -104.38302 631.21722 4278387201
9.878087 -104.37518 630.66748 4278452993
10.189529 -104.20718 630.18707 4278518785
10.573063 -104.22746 629.77142 4278715651
10.885063 -104.08334 629.38 4278584579
11.27032 -104.1243 629.11719 4278650371
11.585135 -104.00917 628.94653 4279176200
11.973869 -104.08663 628.9043 4279832846
12.292863 -104.00519 628.94543 4279899405
12.686475 -104.12044 629.11346 4279702030
13.009143 -104.07631 629.34625 4279110664
13.408497 -104.21796 629.72485 4278715907
13.735065 -104.19059 630.1145 4278519043
14.139033 -104.36623 630.65222 4278650115
14.465034 -104.34968 631.04614 4278650115
14.87099 -104.5326 631.61359 4278650115
9.1813068 -104.12746 631.38641 4278321665
9.5300484 -104.09188 631.1026 4278321665
9.8810196 -104.01846 630.74524 4278452737
10.226195 -103.94957 630.2735 4278584065
10.576122 -103.87135 629.85468 4278715651
10.922042 -103.82711 629.46265 4278584579
11.272783 -103.77628 629.20471 4278715907
11.622824 -103.75687 629.04193 4279307272
11.977311 -103.73532 629.00842 4279833358
12.33131 -103.7548 629.06281 4279898894
12.690568 -103.77104 629.2439 4279176968
13.049086 -103.82371 629.49933 4278716934
13.413331 -103.87576 629.90216 4278584579
13.776525 -103.95844 630.31964 4278519043
14.143539 -104.03474 630.85229 4278650115
14.509855 -104.13224 631.38043 4278715651
14.8861 -104.22379 632.00684 4278715908
8.7934799 -103.751 631.71533 4278321665
9.1812859 -103.80913 631.55371 4278321665
9.4971724 -103.67896 631.28516 4278387201
9.8801394 -103.68587 630.82843 4278452993
10.19201 -103.52354 630.37775 4278518785
10.575624 -103.54473 629.95331 4278650115
10.887688 -103.40492 629.55981 4278584579
11.273255 -103.45037 629.30951 4278585089
11.588633 -103.33627 629.16083 4279044356
11.977876 -103.41457 629.13684 4279503879
12.297513 -103.33938 629.20636 4279373063
12.691805 -103.45428 629.40131 4278848006
13.015559 -103.41094 629.67847 4278715908
13.416353 -103.56552 630.11633 4278519042
13.744501 -103.5551 630.56177 4278518786
14.149207 -103.74014 631.14368 4278650115
14.481924 -103.76561 631.82135 4278650371
14.8897 -103.95483 632.44562 4278715908
8.4854345 -103.59669 632.50134 4278387202
8.8310976 -103.51608 631.9411 4278387202
9.1861467 -103.47596 631.77252 4278321665
9.5323744 -103.40965 631.30817 4278387201
9.882802 -103.32608 630.88342 4278452993
10.228595 -103.26503 630.4472 4278518529
10.578583 -103.18889 630.0235 4278584579
10.924913 -103.14936 629.65356 4278584835
11.276157 -103.10326 629.41888 4278650370
11.626438 -103.08625 629.28809 4279044099
11.982024 -103.06998 629.27985 4279306503
12.336487 -103.09749 629.36975 4279306245
12.696708 -103.11452 629.58002 4278978309
13.056108 -103.16966 629.87891 4278715907
13.42213 -103.23082 630.33881 4278650115
13.785401 -103.32029 630.76611 4278584579
14.153483 -103.40254 631.33087 4278650115
14.537631 -103.58649 632.39008 4278650372
14.920712 -103.687 633.06506 4278650372
8.4831266 -103.2535 632.5199 4278452994
8.7966213 -103.07977 631.9809 4278452994
9.1846018 -103.13739 631.81445 4278321665
9.497508 -102.97446 631.35754 4278387201
9.8814621 -102.99094 630.94708 4278452993
10.194138 -102.83849 630.52887 4278452993
10.577381 -102.86104 630.10309 4278519042
10.890459 -102.72765 629.7547 4278781701
11.276736 -102.77502 629.53296 4278651141
11.592688 -102.66703 629.42468 4278913287
11.983502 -102.74858 629.4303 4279044617
12.303355 -102.68295 629.54303 4279175689
12.699575 -102.80397 629.77094 4279044103
13.023961 -102.76737 630.10114 4278846980
13.426659 -102.92634 630.59735 4278650115
13.754196 -102.92183 631.04596 4278584579
14.158196 -103.09811 631.58392 4278584579
14.497363 -103.16629 632.52203 4278650115
8.4857998 -102.88844 632.54523 4278387202
8.8326597 -102.82319 632.078 4278452738
9.1871729 -102.77863 631.8797 4278387202
9.5328627 -102.70581 631.38983 4278387201
9.8834 -102.62389 630.96057 4278452993
10.229956 -102.57597 630.55994 4278453250
10.579743 -102.50203 630.14148 4278584578
10.927147 -102.46478 629.83307 4278847748
11.279557 -102.42485 629.63702 4279110664
11.630002 -102.41969 629.55548 4279373323
11.987081 -102.4067 629.58356 4279636493
12.342144 -102.44259 629.72192 4279701262
12.704123 -102.46887 629.97144 4279241483
13.064494 -102.52949 630.32037 4278847236
13.432281 -102.59642 630.83844 4278649858
13.794515 -102.68271 631.22601 4278518786
14.161328 -102.75208 631.72388 4278584323
14.560939 -103.03609 633.40192 4278650115
8.7953644 -102.35514 631.91876 4278321665
9.1833439 -102.41239 631.75116 4278387201
9.4984264 -102.27013 631.44049 4278387201
9.8820515 -102.28876 631.01306 4278452993
10.19523 -102.14829 630.61713 4278453250
10.578385 -102.16994 630.20795 4278519297
10.892485 -102.03634 629.91791 4278782212
11.27916 -102.09167 629.7373 4279701516
11.595786 -101.99989 629.67847 4280424467
11.987802 -102.08825 629.7229 4280622108
12.308421 -102.03264 629.88397 4280293396
12.706301 -102.15597 630.14948 4279110665
13.031869 -102.12311 630.5321 4278584836
13.436506 -102.28983 631.07733 4278650114
13.762527 -102.27735 631.45117 4278584323
14.163273 -102.42777 631.85608 4278518787
8.4857788 -102.17727 632.56989 4278321665
8.8341303 -102.13329 632.23645 4278321665
9.1883307 -102.08059 631.99066 4278321665
9.5337276 -102.00477 631.48016 4278387201
9.8840532 -101.92386 631.03412 4278452994
10.230922 -101.88339 630.6441 4278453506
10.581022 -101.81061 630.24396 4278650114
10.92885 -101.77014 629.98279 4279044868
11.282234 -101.7328 629.82965 4279833360
11.63252 -101.74622 629.79694 4280621334
11.991448 -101.74715 629.86566 4280886557
12.346768 -101.78937 630.04987 4280490776
12.710552 -101.81741 630.33624 4279045642
13.071887 -101.88447 630.73096 4278520068
13.441489 -101.95885 631.29053 4278781187
13.803148 -102.03706 631.65137 4278584578
14.171214 -102.11312 632.19073 4278650373
8.7963257 -101.6586 632.03479 4278387201
9.1841297 -101.71132 631.83716 4278321665
9.4988565 -101.56633 631.50256 4278387201
9.882472 -101.5865 631.06866 4278453249
10.195818 -101.44979 630.67377 4278584578
10.579127 -101.47454 630.29718 4278716418
10.893848 -101.3425 630.0495 4278848261
11.280686 -101.40054 629.9137 4279505675
11.597882 -101.3187 629.90125 4280754455
11.991003 -101.41592 629.98676 4281149219
12.312524 -101.36735 630.18842 4280360470
12.711967 -101.4954 630.48322 4278783752
13.038482 -101.47673 630.90784 4278519556
13.444548 -101.64687 631.47192 4278846978
13.76943 -101.62499 631.8194 4278584835
14.176219 -101.80971 632.45801 4278913033
8.1405725 -101.64583 633.64691 4278321409
8.4883337 -101.4962 632.78674 4278387201
8.8359032 -101.44752 632.42255 4278387201
9.1883698 -101.37048 632.01862 4278387201
9.5337029 -101.29645 631.50952 4278387457
9.8838902 -101.21758 631.06525 4278518529
10.231079 -101.1779 630.67834 4278584834
10.581869 -101.11365 630.32233 4278913540
10.929911 -101.08002 630.09888 4278849543
11.284015 -101.04372 629.99213 4279309323
11.634932 -101.05799 630.00525 4280623895
11.994811 -101.0647 630.11658 4281150497
12.351215 -101.11472 630.33795 4280360217
12.715677 -101.15033 630.64832 4278783244
13.078501 -101.23068 631.08057 4278389252
13.448664 -101.31024 631.64441 4278781443
13.80949 -101.3735 631.96887 4278650371
14.181272 -101.47365 632.6615 4278847751
8.105485 -101.19717 633.612 4278321665
8.4853497 -101.147 632.77124 4278387201
8.8012323 -101.00738 632.44104 4278387201
9.1860723 -101.0245 632.01819 4278387201
9.4986095 -100.857 631.51471 4278387457
9.8824701 -100.88055 631.0943 4278518784
10.19563 -100.74188 630.70026 4278650370
10.580043 -100.7729 630.3761 4279110661
10.89515 -100.65025 630.16431 4278717960
11.282578 -100.71626 630.07483 4279113226
11.600698 -100.63643 630.10303 4280559640
11.994569 -100.7393 630.23279 4282200875
12.317368 -100.69575 630.46887 4281412384
12.716948 -100.82494 630.78192 4278784010
13.044439 -100.81361 631.23016 4278519300
13.450582 -100.98726 631.77856 4278846978
13.774458 -100.95061 632.07355 4278715651
14.186485 -101.17209 632.94275 4278716420
8.1398325 -100.92484 633.62134 4278321665
8.4879217 -100.78024 632.784 4278387201
8.8359556 -100.74146 632.49103 4278387201
9.1874981 -100.65232 632.0105 4278387457
9.533371 -100.5862 631.51239 4278387458
9.8840818 -100.51485 631.09784 4278452993
10.231031 -100.46841 630.71936 4278519297
10.583035 -100.40608 630.41376 4278913543
10.931311 -100.38774 630.2243 4278849292
11.286294 -100.3672 630.15973 4279375372
11.637673 -100.38476 630.21118 4281017623
11.998972 -100.39468 630.36505 4281479458
12.356201 -100.44691 630.61859 4281609250
12.72108 -100.48312 630.9472 4279177995
13.084222 -100.56405 631.39026 4278454789
13.453777 -100.63522 631.90515 4278847235
13.813899 -100.69541 632.19916 4278584578
14.190507 -100.82816 633.0943 4278650371
8.1042604 -100.46983 633.54309 4278321665
8.4849815 -100.43062 632.7666 4278387201
8.8007269 -100.29419 632.46497 4278387201
9.1845455 -100.29906 631.9707 4278452993
9.4975882 -100.14283 631.48517 4278518786
9.8820438 -100.17243 631.09656 4278584321
10.195781 -100.0297 630.73077 4278453507
10.580964 -100.06505 630.46051 4278979080
10.897051 -99.958611 630.29358 4279964433
11.284881 -100.03914 630.24969 4279704083
11.604453 -99.966484 630.32043 4280557589
11.998772 -100.07456 630.4964 4280885784
12.323239 -100.03327 630.77222 4280294672
12.723015 -100.16013 631.10919 4278849030
13.051008 -100.1448 631.56067 4278650628
13.45459 -100.31366 632.01569 4278847235
13.778083 -100.26839 632.29071 4278584579
14.225116 -100.56505 633.6319 4278584579
8.1383333 -100.1943 633.53113 4278321665
8.4866142 -100.05434 632.71716 4278387201
8.8351936 -100.01959 632.46429 4278387201
9.1858902 -99.923271 631.92938 4278452993
9.5322609 -99.868126 631.46753 4278584578
9.8835249 -99.806618 631.08917 4278650114
10.2307 -99.765022 630.75696 4278519299
10.58384 -99.707817 630.50793 4279044871
10.932478 -99.695198 630.36578 4279768335
11.288547 -99.683258 630.34784 4280622616
11.641291 -99.711731 630.4436 4281803030
12.003452 -99.734909 630.64758 4281213721
12.362882 -99.787636 630.94141 4280489996
12.727686 -99.81601 631.3006 4279110407
13.091955 -99.894485 631.75763 4278519812
13.458703 -99.963066 632.18707 4278584578
13.819156 -100.02601 632.48505 4278453506
14.230802 -100.24188 633.91504 4278584580
8.1014023 -99.723587 633.35132 4278321665
8.4830751 -99.698235 632.65936 4278387202
8.7993765 -99.566444 632.39832 4278387201
9.1830206 -99.570801 631.89569 4278387457
9.4967861 -99.42662 631.45404 4278518786
9.8817167 -99.466316 631.10193 4278650114
10.196193 -99.335564 630.79193 4278650371
10.582398 -99.375496 630.5733 4278914052
10.899157 -99.27018 630.45593 4279636748
11.288526 -99.352264 630.45953 4280821018
11.609086 -99.290382 630.57568 4281743141
12.00491 -99.413383 630.80377 4280560159
12.330516 -99.375069 631.12396 4279964942
12.730898 -99.495995 631.49249 4278913539
13.05944 -99.479858 631.95795 4278650372
13.459824 -99.64003 632.31335 4278584578
13.784365 -99.602684 632.6012 4278519043
8.1353731 -99.447502 633.33618 4278387201
8.4842892 -99.316315 632.57111 4278387201
8.8331175 -99.283394 632.34302 4278387457
9.1844101 -99.19561 631.84674 4278452993
9.5316296 -99.151802 631.4425 4278650370
9.8834143 -99.101219 631.10571 4278781700
10.23121 -99.07476 630.83478 4278585604
10.584957 -99.022018 630.63916 4279043845
10.934518 -99.00956 630.54669 4279440906
11.290835 -99.002838 630.57635 4281283881
11.64585 -99.039131 630.71881 4284437573
12.008746 -99.071617 630.97656 4281417248
12.370068 -99.122795 631.29974 4278523653
12.734686 -99.154312 631.67627 4278912519
13.099916 -99.240143 632.13702 4278585092
13.464026 -99.297798 632.46307 4278650115
13.826195 -99.365685 632.83392 4278584579
8.0980492 -98.971405 633.11865 4278387201
8.480545 -98.959511 632.50793 4278452994
8.797142 -98.828575 632.26477 4278452994
9.1813755 -98.843475 631.80701 4278453249
9.4960394 -98.712914 631.42419 4278650627
9.8813076 -98.762772 631.11188 4279044612
10.197098 -98.644318 630.86804 4279175686
10.583589 -98.686195 630.70605 4279242757
10.901438 -98.581978 630.64203 4278457618
11.291275 -98.673454 630.69641 4280496177
11.614014 -98.620476 630.86072 4284962881
12.01051 -98.742767 631.13403 4283975227
12.337309 -98.696503 631.47528 4279899398
12.737075 -98.82769 631.83289 4279043840
13.065988 -98.828346 632.28058 4278519043
13.463552 -98.961021 632.53754 4278584834
13.788763 -98.924637 632.83557 4278715907
8.1320248 -98.694458 633.10223 4278387201
8.4820013 -98.580521 632.43555 4278518786
8.8310833 -98.54776 632.22449 4278518786
9.1830244 -98.473663 631.76886 4278519042
9.5310431 -98.442818 631.42188 4278716163
9.8830938 -98.395882 631.11975 4279044099
10.232076 -98.376915 630.91113 4279111172
10.586287 -98.334641 630.77667 4280227610
10.93692 -98.327278 630.73981 4280493866
11.293953 -98.326012 630.81891 4280890929
11.651409 -98.364342 631.00659 4283974716
12.014407 -98.390549 631.29877 4283778110
12.376653 -98.439392 631.6286 4280291084
12.739907 -98.47879 631.96747 4278846465
13.105195 -98.575943 632.38928 4278454019
13.46629 -98.616501 632.6131 4278715650
13.827342 -98.661804 632.90735 4278912773
8.0950975 -98.224869 632.92157 4278452994
8.4788837 -98.23008 632.4137 4278584323
8.7955408 -98.099831 632.17804 4278584579
9.1801653 -98.12764 631.75012 4278519042
9.4955082 -98.007698 631.41461 4278584579
9.8810005 -98.053894 631.13177 4278913025
10.197509 -97.94194 630.94757 4279110665
10.58489 -97.995361 630.8454 4281149744
10.90291 -97.901543 630.83795 4283977290
11.294396 -97.997292 630.94202 4281880138
11.618231 -97.944069 631.14386 4282270257
12.01547 -98.061859 631.42639 4282855719
12.34238 -98.015961 631.75616 4280094726
12.740168 -98.150345 632.05615 4278978566
13.068626 -98.150787 632.42938 4278715908
13.463121 -98.256744 632.60529 4278781701
13.788384 -98.210991 632.83826 4278781702
8.1289654 -97.947449 632.89795 4278452994
8.4807863 -97.856819 632.37512 4278584579
8.8297472 -97.825363 632.15796 4278650115
9.1819258 -97.761024 631.72162 4278650115
9.5302887 -97.735115 631.40918 4278454020
9.8825331 -97.684532 631.13 4279108867
10.232662 -97.665413 630.9776 4279507973
10.58713 -97.632645 630.90704 4282993979
10.93888 -97.645531 630.93433 4286803311
11.297647 -97.655823 631.06616 4283589459
11.65594 -97.692207 631.28668 4281153063
12.019577 -97.711197 631.57123 4280228617
12.380649 -97.762314 631.87836 4278849547
12.743569 -97.802429 632.15112 4278847492
13.106261 -97.888206 632.48022 4278781955
13.466311 -97.906044 632.63 4279176201
13.825186 -97.935783 632.83606 4278847241
8.0933208 -97.492378 632.80914 4278452994
8.4778147 -97.50869 632.38983 4278584322
8.7945023 -97.380585 632.13422 4278584579
9.1791811 -97.413147 631.70758 4278715906
9.4945612 -97.299744 631.39264 4278650372
9.8802233 -97.343529 631.13043 4279700736
10.19746 -97.227539 630.99921 4280100623
10.585204 -97.286453 630.96173 4285882703
10.904373 -97.216072 631.02155 4288580455
11.296261 -97.334824 631.18475 4285029974
11.622301 -97.283356 631.41522 4281283367
12.018722 -97.387878 631.68054 4279179019
12.345681 -97.338905 631.97388 4278651912
12.741907 -97.472 632.21344 4279044611
13.069013 -97.45417 632.49207 4279045126
13.462509 -97.543602 632.61316 4280160786
13.786171 -97.484642 632.77008 4279832336
7.7817521 -97.315598 633.52832 4278321665
8.130023 -97.251122 633.0293 4278452993
8.4817896 -97.161964 632.51306 4278518786
8.8289318 -97.106956 632.12524 4278584578
9.1808882 -97.04557 631.69409 4278715906
9.5294085 -97.027527 631.39856 4278520069
9.8821898 -96.978462 631.14624 4279503366
10.232595 -96.949829 631.03796 4281017870
10.587844 -96.925659 631.03033 4284372026
10.940594 -96.958839 631.12549 4288573276
11.302437 -96.993141 631.32147 4283848003
11.660448 -97.039223 631.55511 4281019424
12.024426 -97.046875 631.81934 4279636491
12.384006 -97.084671 632.08429 4278849289
12.746884 -97.118507 632.31683 4278913283
13.107515 -97.186073 632.58032 4279044356
13.466692 -97.188515 632.70117 4279701517
13.825038 -97.222328 632.85486 4279438349
7.7783022 -96.946579 633.37256 4278387201
8.0952091 -96.804611 632.9873 4278452994
8.4789028 -96.817833 632.52869 4278518786
8.7937136 -96.664116 632.09155 4278584578
9.1782665 -96.694641 631.6698 4278847234
9.4935789 -96.58223 631.37323 4278650629
9.8795395 -96.626457 631.14594 4278916102
10.197365 -96.511749 631.05719 4282068001
10.585435 -96.588333 631.08063 4280630575
10.905709 -96.535736 631.20734 4281224252
11.300851 -96.661118 631.44086 4279057190
11.626425 -96.618843 631.68011 4280490263
12.023582 -96.727425 631.92999 4279375369
12.348992 -96.672333 632.18066 4278914311
12.745513 -96.790176 632.39331 4278781955
13.071542 -96.753136 632.64551 4278978308
13.465043 -96.850502 632.75537 4279175174
13.788523 -96.789505 632.90448 4278847493
7.4291024 -96.681938 633.99335 4278256129
7.7833986 -96.617241 633.6452 4278387458
8.1302423 -96.541817 633.07227 4278452994
8.4807978 -96.4487 632.49615 4278518786
8.8280554 -96.387131 632.06525 4278584578
9.179533 -96.32058 631.65668 4278781186
9.5284653 -96.296738 631.37457 4278586630
9.8772068 -96.258148 631.17072 4279704340
10.228168 -96.244957 631.09674 4281942808
10.578627 -96.238503 631.14459 4285557580
10.932759 -96.282463 631.29816 4286605397
11.30119 -96.315681 631.5708 4281684034
11.658773 -96.363274 631.80927 4278856464
12.028959 -96.377144 632.06476 4279176716
12.387312 -96.421494 632.30774 4278717447
12.751244 -96.445625 632.53326 4278781700
13.112145 -96.505493 632.83093 4278716163
13.471525 -96.512581 632.95404 4278912771
13.831656 -96.558205 633.18939 4278847236
7.7778187 -96.237465 633.43671 4278452994
8.093482 -96.071579 632.87054 4278518786
8.4772644 -96.096672 632.47034 4278584322
8.7924318 -95.940796 632.01355 4278584322
9.1707249 -95.969673 631.63062 4278912512
9.4925966 -95.844246 631.35583 4278388487
9.8652716 -95.913635 631.18317 4280490496
10.197595 -95.810486 631.12561 4285487664
10.562889 -95.916237 631.19653 4294952620
10.907059 -95.853416 631.36737 4294967228
11.298216 -95.980492 631.66364 4286291077
11.62991 -95.927299 631.90582 4281154355
12.027646 -96.042999 632.15369 4279700231
12.352503 -96.001381 632.39905 4278191621
12.750824 -96.121063 632.62909 4278650627
13.077899 -96.086983 632.96344 4278781700
13.47288 -96.184807 633.08569 4278978822
13.79929 -96.154533 633.42694 4278781701
7.7811289 -95.872925 633.45337 4278452993
8.1266518 -95.786774 632.81403 4278584322
8.4792356 -95.724457 632.43579 4278650115
8.8268318 -95.665245 631.99579 4278584579
9.1788731 -95.597176 631.63202 4278846722
9.5282726 -95.565178 631.37738 4278194186
9.877285 -95.535095 631.22736 4280618752
10.228727 -95.542336 631.18323 4285750327
10.578878 -95.550598 631.26709 4294967267
10.933818 -95.595566 631.44598 4294967295
11.303086 -95.623024 631.75372 4288927124
11.661233 -95.665054 631.99127 4278862641
12.031398 -95.686516 632.24609 4279372290
12.390241 -95.739784 632.49561 4278454532
12.755121 -95.771126 632.75574 4278715907
13.118394 -95.841148 633.14392 4278847236
13.477262 -95.842758 633.25195 4279044359
13.848155 -95.962303 633.97522 4278847238
7.7764802 -95.516167 633.39996 4278452993
8.0920477 -95.347153 632.81055 4278518786
8.4765663 -95.376114 632.41278 4278715651
8.7915401 -95.219353 631.96558 4278650115
9.1700773 -95.252319 631.62592 4278846978
9.4925833 -95.121819 631.37616 4278322950
9.865056 -95.195625 631.24463 4280424448
10.198598 -95.106369 631.21204 4283322922
10.563414 -95.224861 631.30646 4294563259
10.90905 -95.158318 631.48993 4294967255
11.301167 -95.274193 631.79047 4287601286
11.632196 -95.220177 632.03461 4279770387
12.030619 -95.346771 632.28894 4279372800
12.355194 -95.312614 632.5517 4278650885
12.754991 -95.435631 632.82288 4278781956
13.083476 -95.415977 633.24573 4278913029
13.477543 -95.505356 633.32635 4279044103
7.7786584 -95.130508 633.27643 4278452994
8.1258392 -95.068298 632.78888 4278584322
8.4785337 -95.007217 632.40936 4278584579
8.826354 -94.949356 631.98425 4278584835
9.1791878 -94.885246 631.66229 4278650114
9.5286312 -94.852249 631.42596 4278389508
9.8785524 -94.827354 631.30408 4279177997
10.23011 -94.842293 631.27661 4278202629
10.58106 -94.852631 631.36761 4283396421
10.935614 -94.895302 631.54327 4288908677
11.302905 -94.90815 631.82013 4282470746
11.662208 -94.945038 632.06067 4279640843
12.031524 -94.978416 632.32489 4279438344
12.391685 -95.046021 632.60132 4278848263
12.757253 -95.083206 632.90906 4278913030
13.122451 -95.159561 633.36237 4278913029
13.48066 -95.154404 633.4342 4278978823
7.3924952 -94.791191 633.87 4278321665
7.7783689 -94.820045 633.521 4278452994
8.0931816 -94.653641 632.9552 4278584322
8.4762583 -94.656158 632.4068 4278584322
8.7911921 -94.507645 631.98352 4278519042
9.1706934 -94.548225 631.6806 4278715907
9.4930782 -94.41851 631.44562 4278519558
9.8673105 -94.490723 631.33234 4278653955
10.199473 -94.405167 631.30884 4281149726
10.566629 -94.5215 631.39709 4278930502
10.910482 -94.453476 631.56134 4279981404
11.300575 -94.56189 631.81494 4280040754
11.632277 -94.499504 632.05402 4280227860
12.030012 -94.628326 632.32001 4279767819
12.356101 -94.609009 632.6106 4279241994
12.756307 -94.745865 632.93573 4278913542
13.085764 -94.720718 633.36517 4278913286
13.479465 -94.8088 633.4502 4278978823
7.781918 -94.456955 633.54254 4278452994
8.1274633 -94.378853 632.96332 4278584322
8.4788485 -94.295708 632.45532 4278650115
8.8266554 -94.246407 632.03723 4278584579
9.1799955 -94.188965 631.73499 4278715907
9.5291986 -94.15493 631.50537 4278455046
9.8843641 -94.122993 631.39008 4279504394
10.235466 -94.133301 631.3667 4281937432
10.591661 -94.138634 631.44153 4284705903
10.946034 -94.176765 631.59216 4287061649
11.306671 -94.187889 631.82104 4281284438
11.666534 -94.225639 632.05157 4279182102
12.029946 -94.2677 632.32538 4279899404
12.391653 -94.337509 632.62189 4279045897
12.757568 -94.385101 632.97931 4278978822
13.122108 -94.44706 633.37781 4278979078
13.481383 -94.450478 633.50745 4279044358
7.3927622 -94.084862 633.95526 4278321665
7.7790003 -94.107872 633.53943 4278518530
8.0929708 -93.946014 633.00629 4278584322
8.477005 -93.954315 632.48322 4278650115
8.7918272 -93.811516 632.05573 4278650115
9.1782837 -93.848228 631.76221 4278781443
9.4940338 -93.724373 631.52832 4278388230
9.8825064 -93.78054 631.41669 4280096001
10.20013 -93.698006 631.39197 4280958761
10.590367 -93.79277 631.46155 4287075759
10.911274 -93.730713 631.5954 4293834698
11.305298 -93.838257 631.80811 4279646050
11.631562 -93.791023 632.03345 4278326299
12.028709 -93.922859 632.30804 4280752655
12.355859 -93.89547 632.61066 4279373576
12.756105 -94.035492 632.97766 4278913539
13.083294 -93.99189 633.29681 4279044870
13.479045 -94.096191 633.46631 4279438344
7.7821398 -93.74897 633.62628 4278452994
8.1277275 -93.675316 633.04346 4278584322
8.479598 -93.598381 632.5401 4278650115
8.8272552 -93.546989 632.10803 4278584579
9.1805563 -93.490402 631.8092 4278781187
9.5296545 -93.459229 631.58099 4278389510
9.8847704 -93.426056 631.46979 4279768590
10.235777 -93.429146 631.4469 4280434215
10.59245 -93.421761 631.50598 4283930729
10.946666 -93.452904 631.63123 4289116102
11.305694 -93.475677 631.82385 4281491538
11.665505 -93.5224 632.03613 4279708445
12.028545 -93.558929 632.30865 4281014801
12.389784 -93.620308 632.60614 4279635975
12.75646 -93.668999 632.98926 4279241221
13.116999 -93.714211 633.2749 4279504137
13.480514 -93.733276 633.49402 4279503882
7.7800865 -93.415489 633.73608 4278518530
8.0935497 -93.244766 633.09375 4278584323
8.4774742 -93.254066 632.57074 4278715651
8.7923956 -93.110687 632.12665 4278584579
9.1786089 -93.147606 631.83624 4278781442
9.4950476 -93.025444 631.60614 4278585606
9.882864 -93.085274 631.50537 4279965964
10.201409 -93.001503 631.48285 4281545763
10.590774 -93.097008 631.54706 4282211651
10.912402 -93.031097 631.66003 4281756739
11.304766 -93.132362 631.8443 4281747495
11.630382 -93.080109 632.04303 4280756246
12.027441 -93.206764 632.30835 4281408528
12.354237 -93.177605 632.59363 4279833098
12.754969 -93.31987 632.97943 4279307782
13.08059 -93.264122 633.21393 4279569930
13.4785 -93.382233 633.4787 4279240967
7.7839379 -93.059303 633.80212 4278452993
8.1288509 -92.976868 633.1629 4278649858
8.4804268 -92.892868 632.62976 4278781188
8.8278151 -92.83979 632.1795 4278715908
9.1806631 -92.789894 631.87891 4278781443
9.5301313 -92.763931 631.66101 4278717446
9.8848734 -92.735817 631.56287 4279571727
10.236782 -92.745033 631.55017 4280493330
10.592866 -92.740707 631.61493 4280887318
10.948217 -92.769402 631.73285 4281671687
11.306863 -92.787155 631.90515 4281083427
11.66573 -92.815315 632.09564 4281016851
12.028977 -92.840645 632.35193 4280885012
12.389207 -92.902405 632.63135 4280162063
12.756742 -92.953751 633.0224 4279702284
13.115665 -92.995636 633.25525 4279570700
13.481682 -93.029305 633.57727 4279175943
7.7806435 -92.718109 633.85895 4278518529
8.0943041 -92.541206 633.19275 4278649858
8.4778938 -92.541206 632.63428 4278846980
8.7929821 -92.401375 632.18958 4279044101
9.1788673 -92.449203 631.89886 4278978821
9.4961624 -92.341972 631.69012 4279372808
9.8836832 -92.401978 631.60394 4279243530
10.203155 -92.314056 631.60034 4278652941
10.5923 -92.409256 631.67963 4279048465
10.914592 -92.346291 631.797 4278193938
11.306891 -92.454659 631.96558 4279507472
11.63213 -92.399414 632.15106 4280818963
12.028646 -92.503853 632.3974 4280819223
12.355289 -92.460831 632.67511 4280687378
12.756439 -92.602104 633.07428 4279964685
13.081048 -92.55674 633.29242 4279308041
13.482348 -92.695938 633.68579 4279175686
7.7842774 -92.350555 633.85071 4278584066
8.1295528 -92.272392 633.26233 4278715651
8.4802303 -92.172287 632.64563 4278978564
8.8279018 -92.130211 632.23224 4279241222
9.1809015 -92.093132 631.93085 4279241478
9.5306072 -92.07917 631.74982 4279373316
9.8811808 -92.050461 631.66632 4280093452
10.231915 -92.058731 631.68445 4281342210
10.585389 -92.048721 631.76935 4283367424
10.941422 -92.086273 631.90442 4282261511
11.305046 -92.120316 632.06897 4279704859
11.663061 -92.152519 632.25397 4279835919
12.032329 -92.153793 632.49506 4280359698
12.392307 -92.196411 632.77942 4280293136
12.760132 -92.243591 633.18384 4279570443
13.119263 -92.297417 633.42859 4279110406
13.486803 -92.350853 633.83911 4279109894
7.7810316 -92.008881 633.875 4278649858
8.0951414 -91.839279 633.29919 4278781443
8.4778681 -91.822289 632.6474 4279109892
8.7930803 -91.68795 632.24023 4279110148
9.1788979 -91.748138 631.95233 4279307525
9.4939756 -91.658844 631.78235 4280551945
9.8804884 -91.717117 631.70923 4279183372
10.193033 -91.639687 631.73999 4292083749
10.585995 -91.729897 631.84668 4294901830
10.904363 -91.683136 631.99133 4288619846
11.305882 -91.783524 632.16425 4278204947
11.630901 -91.73127 632.35663 4278719758
12.032781 -91.82103 632.59589 4279964681
12.359594 -91.773438 632.88556 4279439369
12.761307 -91.911415 633.30396 4279110405
13.08587 -91.876907 633.53424 4279109894
7.7845864 -91.639343 633.85339 4278584322
8.1302824 -91.573318 633.3606 4278781443
8.4800587 -91.451424 632.64648 4278978563
8.8279276 -91.40905 632.27069 4278979333
9.1808681 -91.376442 631.96948 4279699200
9.5274534 -91.381775 631.82166 4278396163
9.8769026 -91.361282 631.74487 4285995008
10.218774 -91.382492 631.797 4294921303
10.576779 -91.375359 631.90747 4294967295
10.929148 -91.426697 632.08276 4294942463
11.302931 -91.44529 632.26654 4282198329
11.660883 -91.465874 632.47119 4278198799
12.036448 -91.463753 632.71631 4279504134
12.397884 -91.514374 633.02057 4279110662
12.765767 -91.569572 633.45227 4279044100
13.126893 -91.623535 633.72107 4279109892
7.7812576 -91.293213 633.87018 4278649858
8.0957861 -91.141685 633.38379 4278781443
8.477684 -91.114601 632.65527 4278978307
8.7931843 -90.969246 632.27185 4278978820
9.1790247 -91.017853 631.97913 4280815872
9.4930782 -90.939987 631.83044 4279181838
9.8796787 -91.011818 631.75848 4292116537
10.189296 -90.937645 631.81427 4294967239
10.583941 -91.021881 631.94171 4294967295
10.902823 -90.981819 632.12769 4294967295
11.307693 -91.086723 632.32739 4285620647
11.634373 -91.033638 632.53986 4278191393
12.036319 -91.128876 632.78876 4280422147
12.364107 -91.087265 633.08765 4279110407
12.766107 -91.237877 633.53198 4278978820
13.08989 -91.191681 633.75494 4279044356
7.7846642 -90.926773 633.87891 4278584066
8.1310921 -90.877251 633.45178 4278781443
8.4800262 -90.755852 632.67517 4278978306
8.8282681 -90.706505 632.31226 4278586118
9.1808538 -90.648773 631.99585 4280157696
9.5269012 -90.636917 631.85199 4278855952
9.8766565 -90.615021 631.76965 4288520273
10.215035 -90.648148 631.83069 4294967256
10.576212 -90.641563 631.95111 4294967256
10.928141 -90.690475 632.15308 4294967295
11.304372 -90.709518 632.36627 4288783778
11.663706 -90.755829 632.58539 4279577383
12.03896 -90.773407 632.84717 4280289536
12.400848 -90.823471 633.14429 4279176199
12.768452 -90.885422 633.58313 4279109893
13.1281 -90.918533 633.80707 4279109893
7.7823901 -90.585663 633.93768 4278584065
8.0967894 -90.447357 633.4917 4278846723
8.4785633 -90.430809 632.74902 4278978050
8.7938442 -90.277458 632.34796 4278912771
9.1791382 -90.29026 632.03162 4279832064
9.4943342 -90.175652 631.86298 4281804294
9.8801746 -90.26516 631.77362 4283258126
10.193724 -90.205536 631.81329 4288847162
10.585864 -90.294235 631.93225 4285116998
10.907656 -90.24485 632.12103 4283210549
11.30915 -90.343147 632.34076 4283846656
11.635597 -90.297356 632.56036 4281340170
12.0372 -90.419258 632.82953 4280093956
12.364267 -90.387672 633.1026 4279175686
12.766272 -90.540657 633.54547 4279109894
13.088081 -90.467316 633.69635 4278978566
7.7855883 -90.226891 633.99005 4278584065
8.1323309 -90.181717 633.56732 4278846723
8.4815178 -90.069084 632.80743 4278978051
8.8295641 -90.009644 632.41223 4278912514
9.1819105 -89.930344 632.06256 4279109636
9.5284433 -89.902443 631.88525 4278457600
9.8828897 -89.887924 631.77881 4280163589
10.224957 -89.930229 631.80756 4282525952
10.587117 -89.932526 631.90637 4283248395
10.939473 -89.965668 632.08661 4284887552
11.309554 -89.967506 632.30597 4280948239
11.669459 -90.00602 632.52521 4279177477
12.037087 -90.045883 632.80487 4279307014
12.39861 -90.106163 633.06982 4279175685
12.76549 -90.168091 633.49127 4279240967
13.122108 -90.183563 633.64471 4279175687
8.0981607 -89.748138 633.61853 4278715394
8.4801426 -89.734459 632.90698 4279043588
8.7953033 -89.580002 632.46881 4279043587
9.180357 -89.587952 632.1203 4278912770
9.4976139 -89.468018 631.91364 4279044356
9.8843279 -89.554169 631.7973 4278392078
10.204147 -89.485985 631.7962 4279046415
10.59323 -89.578369 631.88025 4278720790
10.918257 -89.51606 632.03076 4279637011
11.312039 -89.613823 632.23846 4279506192
11.63815 -89.555801 632.4455 4279438601
12.034726 -89.685356 632.72858 4279175941
12.360617 -89.650986 632.97168 4279240965
12.762201 -89.801392 633.39008 4279503624
13.082057 -89.726364 633.50745 4279504139
8.1338511 -89.479256 633.7005 4278649858
8.4834013 -89.375999 632.99091 4278978052
8.8312635 -89.316307 632.55774 4278978307
9.1834497 -89.240662 632.17877 4278912257
9.5327654 -89.210068 631.96118 4278912772
9.8874273 -89.189293 631.82611 4279503881
10.238623 -89.209091 631.80713 4279964683
10.595567 -89.211449 631.86829 4280293391
10.952194 -89.234222 632.00128 4280490002
11.312752 -89.246887 632.19861 4279833360
11.672665 -89.282829 632.39929 4279307784
12.034834 -89.320122 632.68512 4279240964
12.395427 -89.365646 632.92639 4279306757
12.760651 -89.417198 633.31866 4279963663
13.116132 -89.441788 633.45715 4280488467
13.48359 -89.494514 633.89752 4279699975
8.0996752 -89.044189 633.75818 4278584066
8.4822559 -89.034012 633.10077 4278912259
8.7971563 -88.888062 632.62476 4278978051
9.1818705 -88.909233 632.25409 4279043586
9.4986639 -88.790977 632.00995 4278978051
9.8854179 -88.858284 631.86371 4279307270
10.204582 -88.777718 631.82043 4280227856
10.593923 -88.862625 631.86493 4281083422
10.917261 -88.799629 631.97357 4280886041
11.310974 -88.902397 632.15698 4279702543
11.63605 -88.84668 632.34686 4279307530
12.03275 -88.966789 632.62994 4279438342
12.358138 -88.921852 632.86206 4279307014
12.758795 -89.05761 633.25201 4280226063
13.078771 -88.993965 633.37897 4281538326
13.483252 -89.13562 633.8363 4281666064
8.1354113 -88.775887 633.84161 4278518529
8.4857006 -88.675072 633.19092 4278846722
8.832943 -88.620636 632.71228 4279043586
9.1850481 -88.558647 632.31409 4279174915
9.533844 -88.530029 632.05884 4278913283
9.888422 -88.500244 631.89709 4279569413
10.239124 -88.505661 631.84406 4280818193
10.59614 -88.503273 631.87598 4281346078
10.951306 -88.527672 631.97839 4281804575
11.312017 -88.544922 632.15802 4279899920
11.671044 -88.574585 632.34814 4279176713
12.033336 -88.598145 632.6297 4279437829
12.393394 -88.636635 632.86774 4279241477
12.758224 -88.68187 633.23676 4280094214
13.11376 -88.719002 633.38678 4282126868
13.478882 -88.751648 633.71124 4282389795
8.1013079 -88.346443 633.90704 4278518529
8.4844923 -88.33474 633.29694 4278781185
8.7988853 -88.18811 632.77661 4278912514
9.1833782 -88.223259 632.39124 4279240706
9.4996758 -88.10862 632.11377 4279437572
9.8863029 -88.16301 631.94263 4280094984
10.204898 -88.076233 631.87366 4281146899
10.59395 -88.158836 631.89624 4281738786
10.916964 -88.093353 631.98547 4281477150
11.310583 -88.197166 632.15747 4279506960
11.635647 -88.140411 632.34198 4279438602
12.03208 -88.25103 632.62024 4279503621
12.357037 -88.200333 632.8551 4279437572
12.757069 -88.330101 633.22632 4279438339
13.077055 -88.281227 633.37244 4279765765
13.477425 -88.401581 633.69299 4280813062
8.4880896 -87.987381 633.41315 4278715393
8.8347187 -87.92588 632.88 4278912514
9.1865005 -87.867493 632.46771 4279240451
9.5350218 -87.838577 632.17517 4279569156
9.8891315 -87.803223 631.98901 4280751374
10.239578 -87.799629 631.91101 4281737494
10.596088 -87.793541 631.92633 4282462246
10.950466 -87.818077 632.01343 4282395176
11.311881 -87.83931 632.18414 4280359700
11.670242 -87.872444 632.37415 4279243271
12.033454 -87.890831 632.64813 4279568901
12.392743 -87.923241 632.89478 4279175428
12.757742 -87.96244 633.2475 4279372296
13.11538 -88.002464 633.41113 4279503623
13.475326 -88.031174 633.65625 4279239936
8.4872961 -87.657806 633.54272 4278649857
8.8010597 -87.49955 632.96301 4278781442
9.1852551 -87.529549 632.55823 4279175425
9.5015583 -87.408295 632.23865 4279438084
9.8877373 -87.458672 632.0423 4280751112
10.206148 -87.367119 631.95117 4281672213
10.59446 -87.44957 631.95996 4283511599
10.916918 -87.384033 632.03833 4284039218
11.310722 -87.491226 632.20349 4281280798
11.635025 -87.443298 632.38745 4279374089
12.032264 -87.551315 632.65161 4279831555
12.356552 -87.49511 632.89355 4279109637
12.756556 -87.612167 633.24664 4279307531
13.078569 -87.560768 633.40765 4281079574
13.473399 -87.682793 633.64417 4279963155
8.4912663 -87.315308 633.68665 4278584065
8.8372154 -87.242577 633.08862 4278715650
9.1886568 -87.17762 632.65155 4278978305
9.5364275 -87.135712 632.31226 4279110403
9.8903923 -87.095253 632.09943 4280159747
10.240492 -87.091995 631.99695 4281539599
10.596695 -87.087227 631.99951 4283251501
10.950211 -87.111862 632.07587 4285023037
11.312216 -87.132721 632.23895 4282003746
11.670103 -87.17115 632.42725 4280161803
12.033558 -87.194328 632.68353 4279831301
12.392885 -87.226295 632.93335 4278979078
12.758179 -87.247643 633.25677 4279767050
13.118094 -87.28138 633.52332 4281803805
13.480639 -87.338181 633.82245 4282265638
8.4907522 -86.989319 633.8327 4278518529
8.8039026 -86.823914 633.21527 4278715650
9.1880922 -86.843163 632.77136 4278847233
9.503828 -86.706741 632.4007 4279109635
9.8896618 -86.751976 632.17139 4279766530
10.20796 -86.658615 632.04993 4280555274
10.595806 -86.744255 632.03943 4282264866
10.917308 -86.680847 632.10175 4283383081
11.310958 -86.783356 632.25281 4282001696
11.634636 -86.737534 632.4303 4280685837
12.03206 -86.849258 632.67291 4279766277
12.355692 -86.800476 632.91541 4278978310
12.75555 -86.902328 633.22906 4279634945
13.080783 -86.849747 633.51404 4280887568
13.476335 -86.983772 633.78693 4284039211
8.4950066 -86.650398 633.9978 4278452993
8.8408289 -86.570023 633.38422 4278584578
9.1920099 -86.493889 632.89703 4278846977
9.5394478 -86.444313 632.50818 4278978563
9.8927803 -86.399124 632.25366 4279437827
10.242634 -86.388756 632.11243 4279571205
10.598383 -86.381149 632.0835 4280820757
10.951128 -86.404236 632.13403 4282986277
11.312632 -86.418266 632.27185 4282067747
11.669785 -86.460716 632.44983 4280489229
12.033222 -86.494652 632.68195 4279503624
12.392192 -86.530861 632.92822 4278782469
12.756664 -86.535805 633.21204 4278978309
13.118038 -86.564972 633.51996 4278718724
13.478489 -86.612099 633.73297 4279772680
8.8079472 -86.158134 633.54871 4278584322
9.1918268 -86.163124 633.03406 4278846978
9.5067263 -86.019943 632.61432 4278912771
9.8926439 -86.06102 632.3429 4279241219
10.209931 -85.959076 632.17902 4279438856
10.598122 -86.036751 632.13013 4279835411
10.917759 -85.973846 632.16058 4281739808
11.311421 -86.072174 632.28198 4282132515
11.633879 -86.02594 632.44397 4280752147
12.031448 -86.142784 632.66425 4279373064
12.355001 -86.097755 632.89716 4278847494
12.754574 -86.188354 633.17291 4278716418
13.080848 -86.130356 633.48242 4278781444
13.476087 -86.256546 633.69055 4278586116
8.8455114 -85.905884 633.74738 4278518786
9.1960993 -85.81987 633.19269 4278781186
9.5430851 -85.765495 632.74945 4278847235
9.8960724 -85.714844 632.44806 4279044097
10.245558 -85.692505 632.25903 4279045894
10.600876 -85.675446 632.18408 4279834126
10.953006 -85.696205 632.19598 4281475868
11.313409 -85.707573 632.2984 4281739040
11.669808 -85.744453 632.45642 4280752149
12.032735 -85.779121 632.66895 4279372811
12.391986 -85.819237 632.89996 4278848006
12.755653 -85.823845 633.1582 4278846979
13.116664 -85.849213 633.45886 4278846978
13.478525 -85.887459 633.67261 4278912000
8.813179 -85.499603 633.96399 4278518530
9.1966877 -85.495689 633.37195 4278715650
9.5104151 -85.346405 632.89081 4278846978
9.8958874 -85.381424 632.56512 4278912770
10.212585 -85.270302 632.34619 4278913541
10.600233 -85.336159 632.24237 4279374601
10.919193 -85.264328 632.22748 4281016086
11.311637 -85.357697 632.30865 4282131492
11.633853 -85.304131 632.44293 4281474586
12.030353 -85.418022 632.6427 4279176972
12.354359 -85.380814 632.8559 4278781959
12.753076 -85.48069 633.11041 4278847491
13.0787 -85.415291 633.38818 4278781443
13.475772 -85.526611 633.59967 4278912515
13.800815 -85.489998 633.87262 4278781187
9.2011061 -85.155617 633.5708 4278715394
9.5477953 -85.095406 633.0636 4278781442
9.8999033 -85.038437 632.6983 4278912514
10.248973 -85.007111 632.44867 4278848004
10.603455 -84.979172 632.31104 4279504134
10.955057 -84.987091 632.27032 4281211152
11.313837 -84.990105 632.32727 4282263588
11.669163 -85.018738 632.4491 4281736989
12.031388 -85.04805 632.63525 4279702031
12.390122 -85.092842 632.83893 4278848519
12.752946 -85.111855 633.07568 4278912771
13.113857 -85.137863 633.32904 4278912771
13.476892 -85.164642 633.61969 4279043844
13.838811 -85.214142 633.90723 4278846979
9.2020388 -84.83506 633.78497 4278649857
9.5148935 -84.680305 633.22803 4278781186
9.9000568 -84.711052 632.84259 4278978306
10.215933 -84.589043 632.5578 4278978564
10.602849 -84.639511 632.38922 4279373316
10.921147 -84.553398 632.3147 4280424717
11.311993 -84.641884 632.34479 4282131744
11.633411 -84.582176 632.43341 4281739293
12.0285 -84.686905 632.59918 4279638033
12.352174 -84.643761 632.78088 4278979593
12.749997 -84.753235 633.00964 4278978563
13.074515 -84.693832 633.23645 4278912772
13.473927 -84.802307 633.5354 4279174916
13.797879 -84.754852 633.75671 4278912515
9.5525827 -84.430237 633.42291 4278846722
9.9045744 -84.368668 633.00806 4278978307
10.252882 -84.328674 632.68695 4278913028
10.606288 -84.289429 632.48199 4279307012
10.95739 -84.280205 632.37335 4279899145
11.314038 -84.275009 632.37189 4280886297
11.668466 -84.298187 632.43719 4281542948
12.029122 -84.317177 632.57812 4280032530
12.387028 -84.356674 632.74713 4279177483
12.749724 -84.383705 632.95911 4279175687
13.109282 -84.411209 633.1723 4278978820
13.472947 -84.428993 633.45789 4279043844
13.834038 -84.46949 633.71375 4278978051
9.5203848 -84.016716 633.58997 4278715650
9.9050322 -84.040764 633.18311 4278978050
10.220178 -83.913124 632.82495 4279043843
10.606445 -83.955894 632.58832 4279241219
10.92355 -83.85218 632.4411 4279439112
11.31293 -83.926109 632.40063 4280228373
11.632605 -83.86026 632.42694 4281804319
12.026063 -83.959122 632.5365 4281213214
12.348747 -83.9114 632.68158 4280161808
12.745857 -84.022919 632.88196 4279242247
13.070143 -83.9674 633.07953 4278978822
13.469291 -84.06797 633.35016 4279044100
13.794296 -84.021729 633.61554 4279043843
14.192864 -84.130653 633.85327 4279109123
9.5585012 -83.768211 633.81512 4278649858
9.9097462 -83.699364 633.37561 4278846978
10.257662 -83.657669 632.99188 4278978307
10.610287 -83.611961 632.7146 4279240964
10.960225 -83.585915 632.53241 4279241990
11.315525 -83.563637 632.44995 4279898891
11.667973 -83.578979 632.44403 4281409049
12.027186 -83.590805 632.51868 4281804839
12.383522 -83.624519 632.64392 4281276694
12.745583 -83.650505 632.82483 4279570184
